ply
format ascii 1.0
element vertex 232
property float x
property float y
property float z
property uchar red
property uchar green
property uchar blue
end_header
-0 -0 -0 0 255 0
-0.147678 0.0197039 -0.0451322 0 255 0
-0.0572998 -0.0854134 -0.0776769 0 255 0
0.0207329 -0.100544 -0.103011 0 255 0
0.131069 -0.111334 -0.117886 0 255 0
0.246888 -0.110058 -0.125909 0 255 0
0.352722 -0.113295 -0.117388 0 255 0
0.442183 -0.125401 -0.0880387 0 255 0
0.540152 -0.125197 -0.0442393 0 255 0
0.571429 -0.130621 -0.0250451 0 255 0
0.540595 -0.0571636 -0.0410178 0 255 0
0.458547 -0.0341156 -0.0465251 0 255 0
0.342197 -0.0416143 -0.0789869 0 255 0
0.235848 -0.0477916 -0.118063 0 255 0
0.0498519 -0.042398 -0.157245 0 255 0
-0.215591 -0.266428 0.902733 182 178 142
-0.198785 -0.249997 0.900825 127 124 102
0.00147077 -0.0689398 0.916208 159 158 128
-0.199602 -0.249219 0.89919 132 130 107
-0.152149 -0.213478 0.906583 122 121 87
-0.0173664 -0.084818 0.915299 166 167 142
0.186386 0.107378 0.809438 167 145 131
-0.192347 -0.225919 0.890636 111 111 85
-0.227908 -0.259602 0.887236 73 75 54
0.035582 0.00274511 0.152527 60 32 17
0.0333371 0.0114914 0.157623 115 85 67
-0.0584943 -0.142837 0.930756 159 158 116
0.181192 0.178042 0.837185 49 27 22
-0.154911 -0.212852 0.904551 131 132 106
-0.196712 -0.245253 0.897967 124 125 102
0.277619 0.0756164 0.884626 132 90 68
-0.00257409 0.0414179 0.343753 115 98 77
0.122102 0.217677 0.839782 128 101 96
0.151713 0.367691 0.926262 116 80 76
0.167151 0.376352 0.940147 104 74 70
0.233969 0.305291 0.962608 124 90 86
0.152923 0.367885 0.92935 68 32 28
0.127095 0.37336 0.935106 90 44 30
0.190979 0.105548 0.797556 30 21 6
0.1159 0.128855 0.806404 96 58 44
0.17037 0.186941 0.827852 102 72 68
0.125725 0.274453 0.869884 126 104 103
0.122015 0.218586 0.838792 116 90 84
0.21238 0.351237 0.984118 72 36 36
0.121016 0.219798 0.841106 102 77 72
0.312445 -0.0512818 0.986788 162 173 127
0.124324 0.026184 0.93972 122 123 118
0.122049 0.0536996 0.937328 122 122 114
0.125381 0.280676 0.873519 120 96 94
0.169218 0.376338 0.93969 87 52 46
0.120362 0.0568733 0.945868 125 125 120
-0.247104 -0.291078 0.893618 121 124 76
0.437597 -0.255901 0.811507 92 94 64
0.136025 -0.0131616 0.47427 136 119 94
-0.0485627 0.059801 0.912947 112 110 84
-0.0369321 0.0783517 0.945093 74 62 42
0.0818548 -0.0215395 0.77924 74 82 51
0.0811312 -0.0226891 0.756885 52 58 30
-0.0378972 0.0794878 0.947931 106 97 77
0.251092 0.104421 0.725256 126 126 108
-0.0884447 -0.00337564 0.903215 154 145 105
0.28102 0.186104 0.654039 108 74 53
-0.00168266 -0.0707629 0.920529 84 88 58
0.0905598 0.038058 0.924487 64 60 40
0.0670452 0.0269904 0.70835 120 128 102
0.120095 0.17215 0.817708 109 85 80
0.218066 0.338377 0.958864 84 52 48
0.131333 0.314196 0.892479 68 23 16
0.123919 0.314336 0.891853 70 25 16
0.1806 0.327115 0.912353 127 98 95
0.199989 0.105364 0.778611 100 82 68
0.123813 0.242635 0.853109 96 53 46
0.128024 0.314246 0.891212 111 74 64
-0.201775 -0.055375 1.00821 64 54 16
0.0963591 0.125864 0.786932 85 38 16
0.119644 0.16809 0.816269 107 84 78
0.245831 0.00366559 1.08684 154 154 115
0.118963 0.169686 0.819622 106 84 78
0.18124 0.288969 0.886895 78 48 45
0.126639 0.358793 0.914938 69 26 14
0.168369 0.379549 0.933933 96 63 58
-0.0407508 -0.127344 0.939474 100 102 64
0.124739 0.359414 0.917075 76 30 18
0.18185 0.28701 0.885829 116 80 80
0.337363 -0.0516145 0.970987 146 148 106
-0.0772214 0.0168058 1.04825 154 150 100
-0.196768 -0.228327 0.8941 68 68 42
0.268819 0.110298 0.950421 93 65 46
-0.197039 -0.227475 0.892838 45 50 24
0.264091 0.0542445 0.871121 74 51 36
-0.0405288 -0.297999 1.09432 98 102 60
0.337635 -0.0496324 0.983689 152 152 108
0.285945 -0.0278897 0.992619 96 108 67
-0.0766342 0.0273403 0.891982 142 138 92
0.0951492 0.0473827 0.894446 74 77 62
0.251638 0.0885619 0.860778 134 110 97
0.246073 0.0903119 0.861875 56 28 16
0.0591585 0.151361 0.813351 160 114 103
0.235394 0.258626 0.920139 124 98 96
0.150436 0.261232 0.861863 118 71 65
0.0612428 0.301909 0.911766 114 88 84
0.245992 0.351091 1.01157 90 53 46
0.222471 0.338293 0.963391 126 96 94
0.127822 0.314102 0.890633 125 95 92
0.0741233 0.339136 0.930461 56 16 12
0.133376 0.36891 0.923608 80 36 24
0.213099 0.00705647 1.08125 116 98 86
0.145931 -0.00406669 0.897438 67 76 64
0.0950006 0.0467695 0.893617 68 71 55
0.260076 0.0921729 0.859586 76 44 24
0.122996 0.125072 0.79665 104 69 56
0.0590358 0.151322 0.813365 148 102 90
0.118785 0.147991 0.807932 75 38 32
0.0603422 0.29408 0.904905 124 86 80
0.122306 0.284944 0.87436 49 11 2
-0.017565 -0.086377 0.910589 90 90 65
-0.0983035 -0.00112122 0.948741 100 79 49
0.256284 0.0897581 0.857539 148 125 112
0.246073 0.0839226 0.812074 87 60 44
0.059233 0.151029 0.813092 134 88 76
0.118881 0.147915 0.80772 88 51 45
0.222769 0.294311 0.92469 85 52 49
0.0608444 0.300611 0.911185 120 93 88
0.122765 0.316087 0.894662 92 38 26
0.2338 -0.00323716 1.09114 150 158 120
-0.0897951 0.0288369 0.880043 145 98 72
0.207786 0.0739066 0.849639 52 46 30
0.254973 0.0916534 0.836227 60 32 16
0.108191 0.0595604 0.918491 94 90 83
0.266114 0.0828361 0.878932 94 55 25
0.118835 0.169601 0.81643 96 72 66
0.125003 0.278345 0.871607 112 87 83
-0.0223076 -0.111689 0.944122 113 117 74
0.099905 0.0352562 0.923112 120 117 102
0.0795007 0.100088 0.818025 23 10 10
-0.119815 -0.365467 1.19615 98 101 46
-0.0531706 -0.312411 1.11045 120 122 77
0.272911 0.122153 1.00193 97 70 56
0.107014 0.209267 0.821961 106 58 48
-0.0414644 -0.297994 1.09714 101 108 65
-0.191079 -0.224963 0.88564 64 62 34
0.186115 0.199139 0.84673 110 87 85
0.106887 0.208752 0.821582 90 45 36
0.0713661 0.339674 0.929999 115 86 80
0.127171 0.317395 0.890526 96 60 54
0.245734 -0.0193587 1.04616 64 60 28
0.280387 0.0905208 0.868269 124 86 66
0.122924 -0.0679517 0.967269 156 163 116
0.246823 0.00173574 1.0552 148 154 112
-0.0181951 -0.197283 1.01051 110 114 70
0.0334217 -0.199646 1.01661 108 116 67
0.275995 0.0363671 1.11288 48 29 10
0.271534 0.0279618 0.992947 109 96 78
0.062084 0.0446932 0.687584 92 104 76
0.219773 0.0765023 0.821807 56 48 36
0.265634 0.0823172 0.874354 89 45 16
0.264024 0.10514 0.848378 92 65 56
0.258247 0.115335 0.866241 164 134 130
0.261569 0.110665 0.848739 96 68 62
0.0515794 0.0810741 0.640027 108 114 92
0.0884161 0.132324 0.812802 91 44 18
0.031758 0.160052 0.835483 114 84 77
0.0135091 0.194921 0.864576 132 92 74
0.228635 0.298485 0.935407 114 88 86
0.18341 0.286795 0.889689 115 82 80
0.22616 0.335474 0.960445 80 50 47
0.219299 0.340704 0.968549 60 27 27
0.128012 0.324113 0.898889 113 82 79
0.208335 0.356974 0.946555 72 44 39
0.137364 0.368714 0.926477 118 71 60
0.155662 0.370656 0.93433 88 46 40
0.157167 0.376483 0.92649 122 84 76
0.286002 -0.351473 1.02126 73 88 40
-0.22196 -0.253973 0.882716 58 58 30
0.407945 -0.23899 0.839168 157 158 112
0.277366 -0.127269 0.865463 55 64 46
-0.00341016 -0.0716478 0.920179 68 73 44
-0.107234 -0.0534147 1.00915 102 101 47
0.251538 -0.0145888 1.07904 136 142 107
0.119654 0.0794618 0.835045 88 73 64
0.19633 0.102412 0.785257 80 62 44
0.121421 0.113184 0.80369 42 16 6
0.0408728 0.111302 0.628606 92 98 80
0.054725 0.1793 0.831409 104 56 49
0.0266334 0.131951 0.583391 96 102 78
0.189052 0.224432 0.864407 66 35 31
0.0555011 0.255766 0.886345 56 24 20
0.015489 0.150886 0.568961 78 83 59
0.0702369 0.334719 0.925203 125 82 76
0.233841 0.348632 0.987134 106 82 78
0.180674 0.327689 0.914031 122 91 90
0.123454 0.363403 0.92681 86 36 24
-0.0970853 -0.015631 0.959905 55 35 18
0.271825 0.0269426 0.996364 105 91 73
-0.0725766 0.0817403 0.893854 90 56 34
0.12503 0.0801046 0.818995 95 74 63
0.251883 0.0885988 0.861691 128 105 94
0.264193 0.104695 0.845768 122 96 88
0.0325653 0.158351 0.832111 118 85 76
0.0347275 0.16134 0.841376 50 14 7
0.0312136 0.190519 0.853697 20 5 0
0.182929 0.28683 0.888999 116 84 82
0.181417 0.295077 0.897099 98 72 68
-0.0334722 -0.259589 1.06614 86 94 60
0.232649 -0.0948702 0.882397 64 70 52
0.0778861 0.0290845 0.927873 30 13 2
0.288653 0.0654698 0.888514 114 66 50
0.218454 0.0786194 0.825926 49 44 28
0.123986 0.111097 0.792699 42 15 8
0.0435902 0.0987246 0.618631 100 103 81
0.0586961 0.151348 0.812817 142 93 80
0.232474 0.298938 0.941196 49 22 20
0.230087 0.359516 1.00938 82 58 54
0.134937 0.365708 0.919025 98 56 47
-0.0450603 -0.127249 0.948394 91 96 58
-0.0966448 -0.0160625 0.956465 75 56 36
0.0601217 0.0462379 0.690348 90 99 70
0.0418555 0.100147 0.621192 93 95 73
0.0355648 0.115069 0.598634 102 102 82
-0.190173 -0.0512689 1.01411 100 98 50
0.0996945 0.0348949 0.924242 120 116 104
0.188193 0.118038 0.798602 110 74 57
0.0867035 0.19906 0.83489 44 8 2
-0.208119 0.18816 0.572968 85 77 55
0.22913 0.289026 0.922423 96 66 65
0.245331 0.345153 1.00744 98 61 56
0.208361 0.360208 0.959599 81 52 48
0.199295 0.359583 0.949672 122 98 96
0.181561 0.370106 0.949433 77 40 34
0.257182 0.0857748 0.893188 28 11 4
0.0479563 0.215305 0.861784 24 4 2
-0.055315 0.341323 2.17004 118 87 66
