ply
format ascii 1.0
element vertex 566
property float x
property float y
property float z
property uchar red
property uchar green
property uchar blue
end_header
-0 -0 -0 0 255 0
0.0615785 0.195594 -0.0694456 0 255 0
0.353782 0.211531 -0.0996742 0 255 0
0.566246 0.188549 -0.133399 0 255 0
0.886088 0.0768053 -0.116626 0 255 0
1.17772 0.0598911 -0.0777312 0 255 0
1.45276 0.0495127 -0.00280304 0 255 0
1.65386 0.0106023 0.1059 0 255 0
1.89012 -0.0208785 0.267136 0 255 0
1.91439 0.0820604 0.243554 0 255 0
1.88547 0.0990633 0.306486 0 255 0
1.66928 0.210252 0.25127 0 255 0
1.39922 0.213434 0.118507 0 255 0
1.15388 0.223049 -0.0388564 0 255 0
-0 -0 -0 0 255 0
-0.426714 -0.555867 2.35004 162 160 136
-0.116996 -0.290106 2.50537 165 164 143
-0.00351485 -0.197311 2.55509 165 164 135
-0.320032 -0.175333 2.71278 155 157 112
0.889283 -0.174853 2.86438 179 168 132
0.139866 -0.149989 2.60494 200 202 161
0.886432 -0.152445 2.82677 225 215 180
0.128212 -0.0254081 2.53031 155 158 134
0.749384 0.154569 2.69561 100 72 50
0.77937 0.238814 2.6525 188 147 133
-0.0519713 0.288528 2.51966 76 58 54
0.30103 0.286624 2.05306 175 163 148
-0.0902376 0.379111 2.53573 158 120 105
-0.0686418 0.384667 2.53416 144 104 88
0.115598 0.400015 2.41451 108 69 55
0.123274 0.411465 2.42096 169 147 142
0.540994 0.419491 2.47583 88 56 52
0.662184 0.449093 2.6385 91 60 56
0.115739 0.415547 2.42627 66 33 26
0.133474 0.419419 2.4337 67 35 28
-0.17381 0.498366 2.84123 80 40 20
0.824106 0.394493 2.24209 212 208 188
0.758978 0.419387 2.225 128 126 108
0.0672761 0.540325 2.53685 170 129 115
0.906936 0.596608 2.19861 142 96 72
1.26617 -0.73729 2.42214 150 148 126
-0.492686 -0.627791 2.30725 114 114 82
-0.39606 -0.557036 2.37938 122 121 87
-0.00346445 -0.195734 2.54791 158 158 128
-0.234556 0.0217645 2.87475 174 151 111
0.713433 0.221853 2.62505 174 135 110
0.685228 0.224119 2.59177 73 46 27
0.709984 0.250029 2.58886 126 101 84
-0.0612823 0.275385 2.49384 90 79 78
-0.0368371 0.293953 2.51757 92 62 53
-0.126445 0.299393 2.4758 140 94 60
0.11827 0.334421 2.4068 83 42 27
0.138689 0.335116 2.4093 96 68 62
0.78247 0.34466 2.27982 146 143 118
-0.0563487 0.385225 2.5115 91 50 34
0.704394 0.419499 2.64763 156 134 128
0.0292063 0.385229 2.41258 194 154 138
0.818438 0.385693 2.23998 181 176 152
-0.0875674 -0.669239 2.72836 174 176 142
-0.403851 -0.558462 2.37226 173 170 148
-0.392857 -0.553891 2.36528 133 131 98
-0.177795 -0.278648 2.40665 178 176 152
0.817729 -0.121267 2.81936 146 148 113
0.666914 -0.0847159 2.94718 196 195 160
-0.261627 -0.0667857 2.59001 180 153 127
-0.200339 0.0370673 2.94516 98 58 33
0.723139 0.149043 2.71047 92 65 47
0.735732 0.146521 2.65597 99 74 54
0.731554 0.197227 2.65603 204 160 139
0.70523 0.222749 2.67741 73 41 22
0.198642 0.269025 2.08732 42 26 14
0.544504 0.311194 2.43727 45 30 14
0.566364 0.351542 2.4228 172 136 126
0.113914 0.40112 2.4242 114 70 54
0.193171 0.418195 2.21004 172 130 126
0.762221 0.419525 2.23431 117 116 96
0.551257 0.481765 2.52918 118 83 80
-0.154313 0.548775 2.8666 84 46 28
-0.143861 0.560503 2.84535 186 161 148
0.52585 0.691869 2.72312 164 142 143
0.858244 0.616665 2.28335 228 211 198
-0.392921 -0.555654 2.37515 121 120 86
-0.212412 -0.427415 2.4876 198 199 159
-0.112297 -0.285525 2.50941 166 164 144
0.711234 -1.02336 2.82843 97 105 66
-0.287029 -0.983325 2.97407 118 120 78
0.142515 -0.432133 2.69766 152 153 108
0.896822 -0.297275 2.82375 86 80 36
0.919328 -0.306219 2.88735 155 151 111
0.91161 -0.288693 2.84524 79 68 34
0.843239 -0.13647 2.94268 138 133 98
0.581226 -0.147269 3.10939 70 72 38
0.528588 -0.108548 3.19576 160 160 121
0.650348 -0.0736594 2.8983 94 104 62
0.296786 0.00439262 2.13822 125 131 106
0.645482 -0.0673323 2.93309 131 138 102
-0.237377 0.00525414 2.97532 171 156 120
-0.211553 0.0324388 2.99728 60 27 5
-0.117995 0.059903 2.88519 26 17 3
0.00226221 0.0950747 2.91718 88 94 78
0.773436 0.0856335 2.94032 152 127 94
0.35042 0.10118 2.7445 90 88 80
0.750464 0.140982 2.70324 186 156 136
0.727813 0.209977 2.61971 86 48 22
0.774445 0.227683 2.62811 113 71 50
0.377676 0.235566 2.35317 80 62 48
0.781147 0.23938 2.67052 176 145 130
0.772919 0.253759 2.63418 98 65 49
0.414542 0.277954 2.22695 96 76 70
0.603653 0.371877 2.16665 54 26 24
0.597556 0.453869 2.49829 60 32 28
0.656973 0.571008 2.71084 32 9 5
0.641847 0.662295 2.8576 68 34 28
0.616857 0.67525 2.80229 50 20 15
0.429228 0.697575 2.58341 124 82 78
0.598381 0.753361 2.81906 91 56 52
0.0208501 0.913008 2.98661 112 72 58
0.351937 0.85362 2.72473 110 79 72
0.390776 0.992022 2.91657 110 82 78
0.715143 -1.02521 2.83777 95 103 63
-0.243642 -0.937442 2.93863 126 126 81
-0.560733 -0.690607 2.31502 113 114 76
0.791219 -0.303339 1.50623 104 106 70
0.931616 -0.312426 2.94394 134 132 92
0.0279439 -0.23382 2.60209 126 131 84
-0.0377771 -0.141867 2.46026 108 108 80
0.731356 -0.151057 3.0831 160 166 125
0.074998 -0.0574496 2.48189 118 118 92
0.136723 -0.0151663 2.40544 90 86 64
0.374411 0.0181871 2.79023 65 60 52
-0.113642 0.0401062 2.86139 124 114 90
0.363702 0.0722278 2.74111 94 90 83
0.731079 0.0731741 2.90859 59 33 14
0.775345 0.0724076 2.97279 65 36 7
0.730313 0.155749 2.73488 82 60 44
-0.173863 0.215539 1.80029 154 148 120
0.645858 0.227797 2.50978 38 30 22
-0.062232 0.266026 2.50657 161 152 160
-0.239909 0.280289 1.77672 115 110 80
-0.0892376 0.305835 2.45968 88 50 24
0.418257 0.301602 2.31778 60 40 38
-0.173201 0.386989 2.65915 77 48 26
0.767053 0.336285 2.23734 162 162 146
0.775575 0.341651 2.23915 112 112 92
0.386291 0.430646 2.36161 51 26 22
0.847024 0.439252 2.20203 134 130 113
0.534523 0.606008 2.61369 38 20 18
0.414126 0.311822 0.551067 117 94 80
0.504111 0.656515 2.63094 54 26 21
0.410322 0.708164 2.60798 113 75 72
0.0578475 0.876766 2.79221 73 30 18
0.357099 0.938765 2.76708 70 30 26
-0.238971 -0.931712 2.918 142 141 96
-0.445613 -0.522387 2.31694 68 64 38
0.651148 -0.253101 2.48337 70 76 59
0.0207159 -0.241114 2.64555 141 146 97
0.601808 -0.198513 2.46038 95 100 84
0.57215 -0.0900415 3.19382 167 170 129
0.497274 -0.0827868 3.21628 165 164 125
-0.244361 -0.0138861 2.59497 159 152 110
0.403545 -0.0150442 2.55373 86 90 76
0.529888 -0.06394 3.18385 102 74 52
0.174532 0.0235994 2.20922 44 36 14
0.516199 -0.0483853 3.15987 58 29 18
0.71471 -0.00553586 2.96043 164 162 126
0.680525 0.022207 2.81779 78 62 30
-0.177256 0.0421037 3.03088 157 150 112
-0.120084 0.0573301 2.90862 34 22 8
0.710659 0.138523 2.42856 56 32 12
0.760443 0.13444 2.64496 82 37 11
0.589558 0.204629 2.49124 52 46 35
0.644495 0.228751 2.46438 22 13 4
-0.0807847 0.260913 2.51525 40 24 12
0.392311 0.269085 2.25073 44 14 2
-0.166183 0.399574 2.71964 126 90 68
0.659025 0.4465 2.60127 43 18 14
-0.124456 0.683796 2.95331 139 113 91
0.835612 0.601205 2.24042 140 122 112
0.835807 0.609489 2.24072 108 82 68
0.600117 0.766734 2.90978 122 86 82
0.0156162 0.912902 3.00092 112 73 58
0.0180912 0.931782 3.0234 78 38 22
0.336468 0.920443 2.71221 76 31 22
0.916829 -0.317821 2.93262 102 98 56
-0.0379163 -0.142417 2.45218 96 98 70
-0.666089 -0.139427 2.71595 106 82 37
0.613383 -0.0530298 3.0282 162 172 131
0.82667 0.0205844 2.68345 164 124 110
-0.253267 0.0689985 2.97471 47 26 4
0.755919 0.133332 2.62132 86 42 15
0.726722 0.172684 2.69543 40 19 8
0.707117 0.194911 2.41827 138 96 78
0.733724 0.310771 2.23942 65 66 44
-0.022073 0.352115 2.45268 107 62 38
0.771543 0.343023 2.22629 78 80 56
0.608751 0.393542 2.43351 62 31 28
0.662844 0.494355 2.67983 110 84 80
0.545855 0.540518 2.55104 43 22 18
0.500675 0.65447 2.60673 56 27 22
0.364584 0.838611 2.73872 78 27 22
0.342112 0.984946 2.82502 97 60 46
-0.422422 -0.589557 2.38366 126 124 78
0.907562 -0.17691 3.00287 155 130 98
0.57472 -0.0933953 3.19568 166 170 130
0.489091 -0.0580938 2.92726 126 117 86
0.403343 -0.0171241 2.55415 74 77 62
0.533899 -0.0686681 3.22899 110 83 58
0.472169 -0.0459697 3.05237 28 11 2
0.842696 0.00490024 2.63225 184 146 136
-0.161772 0.0380658 3.18723 30 20 10
0.357018 0.148377 2.79902 17 12 8
0.810931 0.140751 2.66481 126 122 96
-0.194775 0.17706 2.95553 81 78 54
0.778037 0.169777 2.66697 146 102 86
0.591513 0.207174 2.53141 53 48 35
-0.0733151 0.247033 2.47431 140 132 122
0.689388 0.229921 2.57965 104 82 72
0.706398 0.240591 2.58381 142 118 105
-0.0775563 0.270757 2.4047 80 50 28
0.700438 0.269689 2.41894 131 108 86
-0.0967266 0.307107 2.48935 85 46 20
-0.172132 0.376122 2.62425 96 68 46
0.562804 0.421637 2.47357 16 8 4
-0.164752 0.578405 2.95733 146 130 108
0.509756 0.654287 2.58735 66 44 42
0.0450057 0.917485 2.90411 124 86 60
-0.518704 -0.648336 2.32088 98 96 76
-0.416197 -0.586991 2.37255 142 140 91
-0.158748 -0.374767 2.48184 75 78 48
0.953008 -0.337293 3.14753 82 77 36
0.880175 -0.0902944 2.71567 164 131 110
0.466506 -0.0503557 3.08085 28 12 3
0.358251 0.14496 2.81445 14 9 6
0.725831 0.165148 2.70562 44 26 15
0.721924 0.193274 2.62371 125 85 60
-0.122853 0.249172 2.52677 74 46 34
0.569816 0.316236 2.38548 30 24 8
0.55849 0.343706 2.3184 132 100 88
0.206776 0.347297 1.8635 170 124 92
0.516747 0.486723 2.47567 40 18 14
0.628463 0.570577 2.63471 48 24 19
0.349634 0.84774 2.74673 101 70 64
-0.45998 -0.558601 2.26139 116 110 88
0.482933 -0.0799347 3.16635 132 122 96
0.542728 -0.0600773 3.16422 116 88 56
-0.215148 0.0861597 2.48149 139 94 70
-0.146637 0.0738868 2.73745 78 58 38
-0.22589 0.173297 3.09025 44 38 22
0.21443 0.383293 1.77349 93 58 40
0.364664 0.479804 2.40409 48 18 11
0.563886 0.577229 2.56987 63 34 28
0.893194 0.58453 2.13787 95 60 34
0.432877 0.872705 2.79065 110 72 73
0.801933 0.0395595 2.52631 147 106 86
-0.0504839 0.170106 2.47713 18 8 4
0.0724666 0.371471 2.28901 94 44 22
0.875824 0.63858 2.41644 130 108 96
0.0190419 0.958 3.04755 142 112 92
0.142504 0.839441 2.51571 72 46 28
0.37045 0.935486 2.71957 135 92 84
-0.467677 -0.624931 2.35389 107 104 58
0.443655 -0.0500862 2.67672 122 118 98
-0.606773 -0.722499 2.29411 94 98 58
0.526051 0.039045 1.97792 112 112 82
-0.160707 -0.384811 2.51597 112 113 71
-0.361191 -0.541289 2.33381 117 116 75
0.0186534 0.0997251 2.71164 68 70 56
1.2333 -0.700252 2.3276 93 96 68
1.10293 -0.621347 2.42772 86 84 42
1.09538 -0.618928 2.43288 148 150 107
1.05349 -0.603502 2.43975 170 171 128
-0.44297 -0.552701 2.32872 100 100 76
0.439952 0.0883177 1.03494 98 86 50
-0.523734 0.237865 4.98832 83 68 56
0.295589 0.302696 2.4734 106 75 64
0.542158 0.427128 2.45168 30 8 5
-0.426008 -0.556512 2.34722 96 96 74
0.674947 -0.0205581 0.727965 126 126 80
0.847282 -0.152774 2.79785 65 46 16
-0.640966 -0.755905 2.26756 148 150 98
1.23234 -0.70037 2.33483 93 94 68
0.900157 -0.271389 2.75074 92 83 46
0.909583 -0.281399 2.81234 117 116 76
-0.588548 -0.690279 2.29094 64 65 46
0.136419 -0.154759 2.56822 162 162 115
0.510468 0.610366 2.60896 68 34 31
-0.588016 -0.68903 2.28688 60 62 44
0.794936 -0.188682 2.86509 164 174 126
-1.63132 1.44718 4.69025 121 114 96
0.603995 0.910259 4.24416 104 90 88
0.243975 0.0880417 2.61443 64 60 40
0.350456 0.930383 2.7382 121 85 76
0.343866 0.931527 2.72075 69 26 14
-0.557173 -0.686401 2.31729 124 122 80
0.272817 0.12347 2.53874 74 77 62
0.684823 0.237548 2.53492 56 28 16
0.728041 0.244343 2.52346 83 52 29
0.737463 0.28016 2.51466 126 98 90
0.223744 0.426895 2.33986 160 114 103
0.507259 0.506653 2.43791 116 83 77
0.569313 0.855235 2.88894 126 96 94
0.362142 0.821843 2.63491 125 95 92
0.358986 0.954375 2.7462 80 36 24
0.403728 -0.0161601 2.55264 67 76 64
0.242933 0.0855906 2.60579 61 59 38
0.272629 0.122197 2.53658 68 71 55
0.722845 0.242297 2.5341 76 44 24
0.737536 0.2919 2.59844 166 138 128
0.403294 0.325211 2.29234 44 20 13
0.397868 0.359307 2.31889 104 69 56
0.222057 0.426711 2.34325 148 102 90
0.38275 0.415623 2.35035 75 38 32
0.355528 0.751357 2.58126 49 11 2
0.433092 0.969394 2.82 97 64 59
0.712762 0.236202 2.53087 148 125 112
0.724653 0.246507 2.49279 60 28 6
0.222224 0.426359 2.34371 134 88 76
0.383713 0.415434 2.34836 88 51 45
0.721178 0.248817 2.47179 60 32 16
0.364555 0.734513 2.57127 112 87 83
-0.490638 -0.576791 2.30333 64 62 34
0.72087 0.300669 2.52725 74 41 32
0.535313 0.902747 2.87185 116 86 82
0.638411 0.216885 2.40757 56 48 36
0.729603 0.210984 2.57345 89 45 16
0.740819 0.280578 2.5048 92 65 56
0.714683 0.299962 2.56016 164 134 130
0.732466 0.293969 2.51246 96 68 62
0.172156 0.687871 2.56665 116 90 88
0.582986 0.84722 2.87161 80 50 47
0.580496 0.878678 2.98664 96 73 69
0.557823 0.861021 2.9021 60 27 27
0.543434 0.909685 2.83585 72 44 39
0.296902 0.97372 2.7594 90 43 24
0.392736 0.325286 2.32733 42 16 6
0.564999 0.337006 2.36198 121 84 68
0.330927 0.939393 2.74918 86 36 24
0.36561 0.953373 2.76386 94 46 36
0.210016 0.0654765 2.62058 30 16 4
0.392554 0.23339 2.36081 95 74 63
0.636637 0.221099 2.41166 62 56 40
0.700983 0.23204 2.53492 128 105 94
0.741044 0.279194 2.50372 122 96 88
0.507505 0.746401 2.64492 116 84 82
0.201998 0.879706 2.7069 113 88 86
0.209364 0.062624 2.61386 30 13 2
0.634683 0.221407 2.4151 49 44 28
0.406213 0.323697 2.29622 42 15 8
0.226134 0.425935 2.33357 142 93 80
0.609454 0.757659 2.81087 49 22 20
0.365356 0.946779 2.73468 98 56 47
0.376802 0.52653 2.42333 102 75 69
0.269197 0.0800061 2.61493 120 116 104
0.175661 0.782461 2.6459 108 74 66
0.606316 0.857007 3.01828 98 61 56
0.535172 0.915187 2.87641 81 52 48
0.518721 0.915752 2.83852 122 98 96
0.170998 0.577443 2.48278 24 4 2
0.166524 0.77934 2.65762 105 62 54
0.706166 0.24479 2.54116 102 78 68
0.731637 0.296986 2.49723 131 100 94
-0.0292691 0.154513 2.20944 132 124 83
0.33122 0.3679 2.3566 59 16 6
0.338512 0.961773 2.77644 84 40 28
0.314997 0.0747696 2.65712 120 120 120
0.113204 -0.073291 2.39098 52 54 24
-0.325508 -0.105335 2.67439 140 129 98
-0.275145 -0.0474492 2.63764 140 128 86
0.77862 0.247953 2.59399 62 25 12
0.723143 0.283479 2.29852 134 118 103
0.745681 0.287107 2.59003 50 22 14
0.144195 0.38422 2.35142 63 24 7
0.618884 0.312243 2.29155 124 104 90
0.74143 0.304701 2.51554 58 34 29
0.74687 0.309358 2.48258 142 112 108
0.529486 0.596104 2.54427 122 96 92
0.596507 0.852258 2.96636 120 94 90
0.573166 0.854102 2.88692 80 54 54
0.585729 0.87538 2.9794 80 60 58
0.484323 0.868108 2.74186 120 98 96
0.35401 0.923935 2.718 127 88 78
0.460864 0.951611 2.84703 100 64 57
-0.265044 -0.0430171 2.63028 124 109 70
0.745079 0.292779 2.49669 154 128 122
0.620419 0.31288 2.2836 130 108 93
0.64607 0.320492 2.23261 110 94 78
0.654857 0.333924 2.25058 141 124 116
0.115146 0.446415 2.433 113 74 64
0.722707 0.392001 3.05607 100 86 69
0.706294 0.372743 2.58105 116 99 96
0.46693 0.94384 2.81238 74 40 34
0.0373042 -0.162374 2.54584 85 87 58
-0.35364 -0.108862 2.70674 144 134 93
0.687154 0.250971 2.52604 116 85 66
0.710671 0.250995 2.5207 65 41 30
0.780862 0.248722 2.58681 74 37 24
0.700231 0.264503 2.33492 114 96 78
0.620362 0.327406 2.30679 122 100 86
0.719982 0.366704 2.57007 32 13 8
0.293816 0.975766 2.77099 122 75 56
-0.392178 -0.514173 2.38264 70 72 50
0.631693 -0.0370345 2.81132 106 92 64
0.800983 0.14566 2.66562 124 96 82
0.28325 0.289044 2.33605 18 8 4
0.699404 0.2326 2.54062 123 104 94
0.685911 0.240148 2.5187 47 25 14
0.714778 0.251693 2.50212 60 36 22
0.692992 0.266904 2.35037 100 86 66
0.231439 0.373145 2.30672 132 80 52
0.738191 0.298769 2.45137 70 32 24
0.649881 0.335029 2.25575 146 125 120
0.715587 0.370013 2.58584 32 12 8
0.162666 0.50198 2.38681 24 8 2
0.175483 0.681163 2.55679 111 88 84
0.799428 0.137617 2.67513 106 78 58
0.735689 0.294376 2.28137 122 107 96
0.380046 0.363049 2.3019 85 45 32
0.730964 0.384058 2.80055 40 18 14
0.133941 0.507265 2.41598 32 9 2
0.521097 -0.0987944 3.13655 144 152 110
0.214699 0.0597445 2.58433 27 14 4
0.518713 0.661408 2.58836 111 94 90
0.721203 0.29719 2.45097 94 62 54
-0.475719 -0.198375 2.73333 116 114 62
0.734929 0.305711 2.50954 100 72 68
0.531866 0.589176 2.53996 122 95 88
0.153479 0.557431 2.47099 109 73 62
0.376967 0.748949 2.58142 56 18 12
0.187977 0.875166 2.72394 124 82 76
0.683855 0.253098 2.52962 116 85 65
-0.185915 0.0726811 2.45733 128 118 65
0.361044 0.729869 2.56834 102 58 46
0.332272 0.853012 2.65643 45 12 6
0.493982 0.843837 2.70411 99 68 64
0.287228 0.970821 2.82525 105 54 34
0.159525 0.900218 2.7835 77 35 29
0.58385 -0.228809 2.0174 95 98 91
0.604419 0.294984 2.77483 51 26 12
0.638172 0.430512 3.17908 32 11 4
-0.0371755 0.555257 2.60516 139 118 96
-0.0565215 0.600641 2.73079 118 78 64
1.17303 -0.649324 2.373 110 115 69
0.0464078 -0.157347 2.53572 86 85 58
0.914296 -0.262161 2.80708 78 80 37
-0.0480056 0.555691 2.61548 148 130 106
0.174129 -0.222797 2.44794 154 155 105
0.215243 0.281112 2.5316 55 36 24
0.579569 0.867255 3.01773 74 38 34
0.67232 0.228715 2.35464 27 26 12
0.765212 0.262413 2.60375 58 28 20
0.0316031 -0.162425 2.55118 89 88 61
-0.0423201 0.706528 2.7537 131 104 86
-0.0194101 0.814267 2.81288 136 114 94
0.359361 0.832397 2.63854 104 64 58
-0.101848 0.666948 2.76238 110 82 60
0.0597192 -0.469357 1.94541 68 76 28
0.913442 -0.259573 2.79938 86 86 50
0.759224 0.321839 2.89687 148 141 126
0.480994 -0.109764 2.25458 74 84 70
0.720945 -0.126997 2.88073 130 139 104
0.803156 0.199191 2.67265 74 48 34
0.74483 0.291667 3.00871 102 92 78
0.700676 0.424043 2.59421 120 100 97
0.678845 0.538451 2.74611 106 76 73
0.522598 0.666786 2.58506 114 96 92
0.608124 0.844542 2.93649 112 88 84
0.780066 0.249201 2.58951 69 32 16
0.669217 0.439449 2.62833 34 11 10
0.592242 -0.122153 3.03883 117 119 84
0.531621 -0.115425 3.15855 144 147 110
0.779921 0.148312 2.6457 139 100 88
0.641281 0.512332 2.6833 34 8 4
0.55321 0.905506 2.81583 84 62 61
-0.289733 -0.0575026 2.69064 99 87 52
0.202687 -0.0806497 3.25742 70 52 36
0.774352 0.203365 2.73434 126 103 90
0.758821 0.371986 2.76096 29 13 8
0.658235 0.489305 2.6726 95 73 69
0.643653 0.560826 2.70407 90 60 55
0.652777 0.625094 2.70814 80 48 44
0.545839 0.828441 2.63282 110 88 84
0.661805 -0.244097 2.45769 68 74 54
0.876142 0.0307518 2.56133 121 87 74
0.778251 0.242496 2.7321 31 12 9
0.637709 0.286373 2.43706 122 100 84
0.208419 0.435437 2.32678 60 30 23
0.515173 0.477802 2.51481 95 66 56
0.5757 0.846186 2.85553 116 91 89
0.65294 -0.123246 2.94077 76 74 36
0.207478 -0.0880311 3.29122 166 158 118
-0.00706788 0.404223 2.42565 116 92 73
0.742005 0.379583 2.79691 25 9 5
0.158819 0.679528 2.57472 120 87 78
0.380541 0.945312 2.74367 104 56 43
-0.0318513 0.0724417 2.34854 142 138 84
0.705421 0.0893095 2.90626 103 82 74
0.675917 0.255825 2.53399 122 90 70
0.654811 0.435974 2.67131 73 44 41
0.137003 0.578371 2.52296 32 6 1
0.183531 0.635864 2.52931 48 8 2
0.52872 -0.272077 2.60822 146 151 110
0.13493 0.0664138 2.34027 133 130 78
0.789962 0.105656 2.71114 17 7 1
0.670986 0.248916 3.01493 58 36 26
0.767967 0.282283 2.69674 111 81 73
0.709394 0.486119 3.01033 33 15 10
0.249056 -0.089163 3.128 77 58 38
0.0328933 0.152904 2.4316 108 94 74
0.670321 0.639183 2.70021 47 18 15
0.340474 0.864659 2.5211 96 65 61
-0.226336 -0.103318 2.52762 150 146 82
0.710867 0.296156 2.64056 116 92 84
0.690534 0.299958 2.3558 128 104 87
0.683569 0.532335 3.11021 89 59 39
0.41907 0.921461 2.61002 104 58 42
0.929147 -0.232182 1.45015 96 92 54
0.0922136 0.341087 2.29928 103 58 32
0.697004 0.264032 3.09731 138 126 114
0.395183 0.522174 2.39842 116 88 81
0.595083 0.510065 2.41216 112 95 88
0.555002 0.628245 2.52241 122 103 97
0.614034 0.739421 3.10783 109 88 84
0.516947 0.760292 2.63909 111 87 84
0.365747 0.92485 2.72023 52 14 7
0.643912 -0.247408 2.4916 63 68 49
0.738912 0.329681 2.9573 54 31 24
0.50093 0.917599 3.27275 94 68 61
0.516128 -0.205419 2.30171 145 151 111
0.52805 -0.159859 2.55405 61 64 46
0.844302 0.0555842 2.63448 104 74 54
0.167875 0.293069 2.32151 103 78 60
0.508307 0.74656 2.64553 110 78 72
0.733428 -0.286081 1.68714 150 148 100
0.71594 -0.313704 1.88036 140 144 104
0.439136 -0.228421 2.41663 140 146 106
-0.00892048 0.0727901 2.27663 144 137 82
0.523138 -0.267774 2.61629 138 143 106
0.847888 -0.00195794 2.74381 115 87 76
-0.453828 -0.0464272 2.83076 116 104 62
0.557842 -0.12273 3.11134 110 112 74
0.186255 0.302243 1.90796 128 118 92
0.767972 0.323902 2.90555 44 24 16
0.711893 0.377382 2.5275 34 12 10
0.797172 0.203505 2.68256 92 66 56
0.800704 0.104309 2.67326 123 94 82
0.646679 0.633983 2.69002 56 28 24
0.527473 0.696176 2.9495 86 65 61
1.80732 0.147378 0.470022 96 75 68
1.56015 0.293364 0.92274 122 101 98
1.17578 0.461868 1.68392 108 87 82
1.28409 0.0570733 1.6453 121 84 72
1.21961 0.0694948 1.72402 172 125 106
-0.907795 -0.515393 7.41473 108 83 62
-0.30371 0.0153314 5.26002 67 35 11
1.17064 0.460848 1.69175 99 79 75
1.88547 0.0990638 0.306488 64 40 33
1.05519 0.00444005 2.2258 132 100 86
0.44033 0.696765 2.71842 102 81 76
-0.0405234 -0.269023 2.53963 82 84 52
0.899576 -0.28221 2.81206 74 71 32
-0.248263 0.0744984 2.44527 156 138 94
-0.219192 0.14682 2.42651 134 114 78
0.40162 0.632272 2.43164 68 32 23
0.907658 -0.25874 2.81015 90 86 51
-0.239838 0.071702 2.42729 155 144 88
-0.268623 0.0631081 2.45219 150 143 84
