ply
format ascii 1.0
element vertex 1301
property float x
property float y
property float z
property uchar red
property uchar green
property uchar blue
end_header
0.440498 0.143972 1.61693 131 99 79
0.346854 0.19143 1.48796 59 46 24
-0.285598 -0.677321 1.90443 128 128 74
-0.0950954 -0.509037 1.75982 146 149 106
-0.0801752 -0.447266 1.68933 144 150 115
-0.223915 -0.334451 1.46162 121 124 82
-0.195019 -0.315784 1.491 150 150 106
-0.0723673 -0.213839 1.56319 162 162 122
-0.0157554 -0.168737 1.57871 167 170 128
0.254827 -0.18641 1.71145 136 143 102
0.542562 -0.104671 1.74583 156 141 106
0.180272 -0.0267801 1.4155 62 69 44
0.262471 -0.01984 1.70576 102 94 84
-0.124408 0.0246447 1.81172 82 46 22
-0.115206 0.0413814 1.73016 148 128 108
0.0205305 0.0730893 1.3192 120 122 104
0.50073 0.0888047 1.66203 163 156 132
-0.125662 0.119639 1.17934 179 179 145
0.118816 0.11516 1.24212 140 136 111
-0.13009 0.125939 1.16703 188 186 158
-0.13239 0.128495 1.16613 130 130 96
0.150739 0.131675 1.21805 117 128 90
-0.0751271 0.148717 1.53373 104 76 64
0.449986 0.152971 1.55205 162 132 104
0.121507 0.150984 1.23279 42 38 17
0.447535 0.156596 1.59275 88 64 28
0.223353 0.159111 1.44997 28 12 4
0.252169 0.16768 1.39157 128 108 102
0.232925 0.180949 1.39866 58 28 16
0.236078 0.185634 1.3866 155 120 112
0.366876 0.192736 1.48812 144 130 119
-0.24554 0.469757 5.53861 127 88 70
0.235944 0.193568 1.37432 112 76 66
-0.0484562 0.212792 1.54343 124 82 64
0.122158 0.190662 1.17479 178 154 128
0.476442 0.207694 1.3874 130 130 106
0.0180851 0.232409 1.43918 150 105 85
0.333781 0.233882 1.49442 58 30 25
0.435432 0.26566 1.65926 192 180 169
0.336489 0.257502 1.51194 135 112 110
0.340802 0.261235 1.51813 48 26 24
0.405236 0.274273 1.6101 70 42 38
0.514937 0.259311 1.34481 130 125 98
0.408884 0.308299 1.66671 150 126 120
0.388842 0.364623 1.68108 71 40 36
0.38281 0.407024 1.71721 136 102 98
0.378391 0.415719 1.71954 61 32 29
0.545454 0.367796 1.34193 93 63 43
0.250463 0.432872 1.58752 151 112 112
0.366803 0.47272 1.76015 152 116 112
0.295075 0.524775 1.70096 149 120 118
0.315285 0.544686 1.77917 81 42 40
0.289225 0.532478 1.71164 76 46 42
0.293028 0.535386 1.71046 142 117 115
0.260612 0.58153 1.72399 138 106 106
0.249389 0.588879 1.73101 78 48 43
0.201147 0.596687 1.73567 101 58 48
0.266407 0.597753 1.75059 151 118 116
0.240891 0.596181 1.72473 132 108 105
0.211964 0.602331 1.71469 114 76 66
-0.17171 -0.591289 1.81079 162 162 120
-0.146417 -0.565631 1.79256 157 158 114
-0.314629 -0.395683 1.4183 109 106 84
0.714347 -0.410328 1.48213 194 195 151
0.724562 -0.42052 1.51905 116 116 76
0.370175 -0.176419 1.13081 138 132 108
0.0285866 -0.219303 1.60422 150 154 112
-0.356946 -0.106666 1.64575 85 74 39
-0.1511 -0.0880985 1.62487 188 190 142
-0.149951 -0.0883646 1.67249 180 183 143
0.527349 -0.101132 1.72442 126 117 80
-0.177709 -0.0563861 1.61355 126 104 78
0.500935 -0.0737252 1.73839 159 160 124
0.499895 0.0160651 1.61986 179 140 120
0.513859 0.0129908 1.63312 158 117 102
0.446612 0.0338481 1.80211 118 94 64
0.483021 0.065781 1.62087 145 103 81
0.498049 0.0875203 1.64346 160 152 128
0.310359 0.107204 1.74119 36 32 18
0.442739 0.121637 1.60922 174 130 112
0.14112 0.131777 1.22418 120 126 90
0.417743 0.136967 1.58392 70 48 29
0.42897 0.137408 1.60401 78 50 32
-0.140878 0.142036 1.14209 156 153 127
0.251941 0.166947 1.38626 92 76 70
0.231963 0.181355 1.39157 44 18 8
0.0718902 0.199307 1.44075 72 31 15
0.317376 0.19728 1.46845 150 113 90
-0.0408081 0.211297 1.52597 116 74 50
0.115575 0.17953 1.10607 82 46 32
0.122329 0.189652 1.18105 164 137 114
0.225298 0.205786 1.40943 122 102 96
0.222133 0.209218 1.44315 62 36 25
0.470844 0.202865 1.38413 198 198 180
0.478944 0.209824 1.38257 182 180 162
-0.0906887 0.242989 1.60709 118 78 56
0.122487 0.212258 1.17693 180 146 120
0.498402 0.237159 1.35304 171 168 148
0.0779432 0.2732 1.47729 144 116 110
0.0785105 0.27891 1.49527 141 118 112
0.461807 0.252896 1.35195 97 99 80
0.175392 0.246602 1.14369 112 114 96
0.337117 0.293182 1.54568 72 46 40
0.330315 0.294179 1.53791 114 84 82
0.0417882 0.326758 1.531 150 106 90
0.388027 0.363121 1.6786 92 59 56
0.383968 0.409348 1.72846 130 96 93
0.313025 0.415367 1.61931 138 118 118
0.320895 0.420426 1.64145 96 72 72
0.543195 0.361057 1.33522 208 194 184
0.541202 0.372883 1.37528 154 138 124
0.293177 0.534697 1.71245 126 100 98
0.195493 0.589466 1.72094 152 104 92
0.266137 0.598866 1.75904 154 124 122
0.240075 0.594894 1.72432 148 124 120
0.268425 0.602759 1.75922 132 100 98
-0.167773 -0.582218 1.78738 152 150 112
-0.0909223 -0.495264 1.72268 128 134 92
0.717382 -0.412653 1.48393 195 194 150
0.718726 -0.415688 1.50395 115 115 74
0.708922 -0.38042 1.54212 192 188 153
-0.0172631 -0.170618 1.59303 146 149 110
0.0139832 -0.145923 1.60824 178 181 136
0.0239443 -0.0994703 1.5602 140 139 107
-0.132707 -0.0796545 1.68451 174 178 136
0.291199 -0.0332669 1.776 155 146 122
-0.0883488 0.00866002 1.56403 125 102 70
0.0321211 0.0854374 1.36438 100 104 94
0.498958 0.0870534 1.64719 150 145 116
0.120044 0.108559 1.25606 52 52 25
0.306748 0.105243 1.69066 30 23 10
-0.13123 0.12892 1.16074 138 138 106
0.444615 0.127567 1.60536 110 73 50
0.149979 0.131025 1.22168 102 114 74
0.478814 0.135946 1.64011 144 92 68
0.43739 0.137563 1.60942 150 114 88
-0.074587 0.148869 1.54191 110 82 72
0.230153 0.141239 1.46056 88 78 64
0.242198 0.159885 1.40473 124 100 85
-0.0221542 0.176553 1.54018 58 30 22
0.0714638 0.199237 1.45426 71 28 13
0.112595 0.178292 1.0908 80 46 32
0.225409 0.204859 1.40476 125 106 98
0.235885 0.208552 1.46162 65 34 25
0.473773 0.206437 1.37692 147 146 124
0.121829 0.210592 1.1677 188 149 124
0.0685175 0.248656 1.47488 54 18 8
0.330331 0.257087 1.52259 68 40 36
0.330546 0.293335 1.53901 116 88 86
0.398547 0.310633 1.64715 98 66 60
0.089644 0.321375 1.53735 35 12 9
0.390807 0.354012 1.67711 92 62 59
0.333218 0.379633 1.65625 107 77 76
0.313641 0.373574 1.58392 72 40 37
0.37819 0.416753 1.72162 57 29 26
0.53879 0.358389 1.3224 207 195 186
0.523328 0.374317 1.39089 198 179 164
0.544546 0.369393 1.34407 96 68 46
-0.000718855 0.49914 1.80113 114 78 67
0.359743 0.475848 1.74117 70 39 34
0.303934 0.470026 1.65338 148 126 124
0.321254 0.533103 1.75129 94 53 51
0.235665 0.56041 1.63158 120 88 80
-0.119043 -0.532129 1.75621 166 170 129
0.710509 -0.40974 1.48549 162 162 120
-0.312943 -0.128684 1.6661 149 146 101
-0.35721 -0.10673 1.64796 85 74 42
0.492638 -0.116965 1.76917 199 206 165
0.555277 -0.0772398 1.70658 182 167 135
0.39692 -0.0432875 1.77149 172 181 142
0.397998 -0.0400506 1.8108 194 204 164
0.414655 0.0157057 1.71983 118 101 66
-0.103538 0.030508 1.85086 206 202 162
-0.0332533 0.0394324 1.68615 34 26 8
0.433278 0.037261 1.73329 106 81 50
0.0170023 0.0662101 1.60365 113 114 98
0.485488 0.0675702 1.64015 136 96 72
0.118993 0.11464 1.24376 105 101 77
-0.1256 0.121215 1.15989 191 190 163
-0.131528 0.127802 1.1576 169 166 140
0.173539 0.128269 1.22415 140 146 123
0.406652 0.134231 1.59474 32 18 6
0.393843 0.150462 1.51906 94 88 69
0.459717 0.149288 1.69151 80 48 25
0.433255 0.153236 1.52022 107 83 54
-0.0375945 0.169691 1.52513 56 41 34
0.174682 0.160107 1.20966 68 67 48
0.181573 0.171224 1.21088 67 46 40
0.236969 0.189143 1.38536 122 84 72
0.122316 0.189338 1.17564 170 145 120
0.122553 0.210945 1.16798 184 146 122
0.0750714 0.245119 1.45542 164 140 132
0.122737 0.233018 1.13481 136 106 90
0.463189 0.254178 1.35714 102 104 84
0.361208 0.28511 1.56701 83 55 51
0.330364 0.292562 1.53344 138 110 108
0.356093 0.313004 1.56684 98 66 62
0.122645 0.266397 1.09631 124 103 89
0.319964 0.329619 1.56523 86 57 54
0.329694 0.371761 1.60105 60 30 28
-0.0713645 0.419158 1.78712 152 126 104
0.305231 0.399348 1.58702 75 46 42
0.305392 0.420688 1.62137 64 34 31
0.520219 0.374932 1.35326 106 78 62
0.00311532 0.480248 1.71281 156 124 114
0.316705 0.53129 1.73856 94 56 53
0.293169 0.530397 1.70275 134 107 104
0.211663 0.572529 1.6965 142 107 104
0.255793 0.575594 1.69067 138 106 104
0.269871 0.599541 1.7508 132 100 98
0.713528 -0.40003 1.49435 88 86 49
0.702439 -0.377556 1.52681 182 177 144
-0.230222 -0.31221 1.44853 126 126 104
0.261122 -0.00458592 1.3738 170 170 148
-0.145094 0.0101124 1.81088 182 166 126
-0.0710623 0.0394847 1.76796 52 32 15
0.118522 0.0784883 1.29612 136 138 116
0.456678 0.0641356 1.7661 58 32 14
0.474947 0.103969 1.62052 162 120 106
-0.0779958 0.12611 1.47921 73 62 47
0.443428 0.119359 1.61668 156 114 91
-0.133188 0.129399 1.16056 180 176 152
-0.072492 0.149676 1.53391 102 74 60
-0.0521964 0.157206 1.54899 72 50 36
-0.0556444 0.165218 1.50255 112 82 61
0.119076 0.155636 1.19604 100 88 78
0.325232 0.189556 1.46006 36 24 13
0.120289 0.190379 1.17751 191 156 136
0.430826 0.242326 1.65767 75 54 46
0.328427 0.23631 1.50125 48 20 13
0.367457 0.246759 1.53867 86 57 50
0.500032 0.233786 1.3755 179 176 157
0.334403 0.255043 1.51912 89 65 62
0.362481 0.281464 1.55534 98 68 64
0.356433 0.315355 1.57701 94 62 60
-0.0107267 0.425464 1.70378 130 96 87
0.303828 0.418145 1.61535 76 43 40
0.54179 0.362331 1.3429 204 198 190
-0.0496469 0.470722 1.76392 122 100 82
0.293744 0.533216 1.72384 114 86 83
0.275364 0.537394 1.72298 140 104 104
0.215031 0.575774 1.69471 117 79 72
0.244715 0.564582 1.64559 132 102 100
0.26961 0.594883 1.74154 132 99 96
0.733899 -0.418588 1.54374 84 83 48
0.688014 -0.395541 1.49958 200 202 157
-0.0577532 -0.415436 1.69804 141 148 112
-0.309169 -0.125528 1.64832 140 136 92
0.489261 -0.118209 1.77126 198 206 161
0.448183 -0.0963868 1.75021 199 206 165
0.512208 -0.0771375 1.71132 96 78 48
0.448808 -0.0900701 1.89908 195 198 159
0.542422 -0.0604716 1.67535 192 166 143
-0.0485572 0.0304895 1.62163 100 82 64
-0.117294 0.0281789 1.78697 71 36 12
0.115664 0.0943431 1.30912 54 55 35
0.502692 0.0852724 1.64917 154 157 122
0.442445 0.117426 1.60444 158 118 95
-0.0726579 0.150868 1.52145 120 90 78
0.116597 0.163051 1.19559 25 18 10
0.309582 0.199596 1.4738 174 135 114
0.23091 0.204309 1.40178 68 32 24
0.118779 0.192285 1.17271 198 161 142
-0.108337 0.248256 1.68312 130 93 71
-0.031599 0.239077 1.53584 52 19 8
0.501422 0.234899 1.37975 155 152 132
-0.0878346 0.319168 1.72737 60 22 8
-0.113185 0.328351 1.76332 187 176 152
0.334821 0.373101 1.61986 48 20 16
-0.0128511 0.422574 1.69989 100 60 51
0.304034 0.467013 1.65341 127 96 94
0.311443 0.540205 1.75188 84 46 44
0.119982 0.546205 1.57392 80 36 29
0.221606 0.525204 1.51103 95 60 51
0.54917 -0.178655 1.74912 88 81 36
-0.356915 -0.107003 1.64554 92 82 44
0.07914 -0.0956951 1.56077 204 211 164
-0.202098 -0.0510878 1.63003 176 168 120
0.541809 -0.0432899 1.66571 154 116 91
0.291468 -0.0201468 1.56592 187 189 157
0.506234 0.017231 1.62112 170 131 116
-0.0453279 0.03472 1.72068 37 22 8
0.112702 0.0941445 1.28148 50 51 35
0.482838 0.0919766 1.6443 206 168 158
0.46584 0.122222 1.63489 130 94 70
-0.0669498 0.187761 1.5445 110 68 42
0.29743 0.200127 1.43215 185 148 128
0.328975 0.203211 1.51149 122 83 61
-0.112744 0.273163 1.69198 106 72 47
0.365466 0.248796 1.54988 70 42 36
0.32086 0.259717 1.51259 68 35 30
0.356508 0.282628 1.54977 94 66 62
0.315652 0.546585 1.79344 110 70 70
0.152327 0.484232 1.33155 126 86 76
0.267682 0.597468 1.75085 132 99 96
0.532431 -0.119105 1.75724 138 140 102
-0.21211 -0.071961 1.65941 187 187 144
0.0067068 -0.0551964 1.77867 206 209 167
-0.0211379 -0.0290925 1.62859 202 208 162
0.541308 -0.0429127 1.66987 157 121 96
0.0926961 0.061922 0.517531 152 150 125
-0.157831 0.0098837 1.84532 168 140 104
0.432809 0.00221792 1.75423 170 177 136
0.502792 0.0200417 1.68497 168 153 122
-0.115526 0.209723 1.71901 142 96 69
0.116833 0.190043 1.1568 192 154 134
0.0840521 0.232683 1.32375 100 61 50
0.360096 0.282166 1.56773 116 86 83
0.334234 0.365073 1.60554 125 90 86
0.367522 0.407895 1.68757 90 58 56
0.532149 0.350023 1.32664 206 198 190
0.119209 0.527318 1.52169 76 34 29
-0.0612351 -0.469276 1.73126 143 149 108
0.680153 -0.39368 1.5138 102 100 60
0.642597 -0.377091 1.51559 119 120 80
0.0145089 -0.145025 1.6058 148 152 110
-0.024678 -0.0882066 1.50828 137 138 108
0.499568 0.0160207 1.61747 184 145 126
-0.228571 0.0391942 3.03116 112 115 92
-0.248141 0.0400013 3.14531 86 82 62
-0.0296271 0.17122 1.5361 117 105 104
0.358073 0.190463 1.44656 112 99 85
-0.0205922 0.216466 1.51614 93 48 24
-0.0948377 0.345155 1.76875 90 62 45
0.392368 0.396928 1.69595 118 90 84
0.273216 0.58916 1.76084 130 94 92
0.197534 0.587314 1.71804 144 97 84
0.267141 0.595969 1.75327 126 94 91
0.66863 -0.384318 1.48617 146 146 104
0.0200553 0.0736701 1.32707 110 112 92
-0.124265 0.119806 1.1665 177 173 138
0.17381 0.128238 1.2154 136 141 119
0.257348 0.179614 1.3963 62 42 40
0.361978 0.194365 1.46874 152 132 120
0.335991 0.19753 1.47977 76 50 32
0.0271497 0.228522 1.46431 176 130 109
-0.103996 0.337622 1.74744 68 44 26
0.146688 0.297353 1.07307 136 144 128
0.514422 0.368298 1.39089 159 142 132
0.262124 0.429689 1.5913 147 104 102
0.306241 0.46415 1.65379 151 118 118
0.104958 0.476724 1.65093 145 108 104
0.242041 0.585701 1.72028 118 84 76
-0.349926 -0.413131 1.38524 93 92 69
-0.129769 -0.262507 1.52041 154 156 113
-0.0431761 -0.189402 1.56942 146 148 108
0.492396 -0.117434 1.76853 178 187 148
0.0679423 0.0682625 1.41779 106 110 97
0.145377 0.19864 1.15956 94 102 72
0.337395 0.29185 1.54323 79 52 49
0.14583 0.297332 1.06977 132 135 119
0.294456 0.528108 1.70064 151 126 122
0.268889 0.600667 1.75417 129 96 94
0.53073 -0.119319 1.75791 146 148 105
0.546231 -0.0948679 1.73951 197 192 155
-0.0886983 0.00279559 1.49081 192 188 142
0.3282 0.188998 1.47559 34 20 11
0.514943 0.374478 1.39187 114 89 74
0.542649 0.369405 1.34122 95 66 48
-0.23152 0.404139 1.00705 98 91 67
0.210859 0.6019 1.7096 106 73 60
-0.367235 -0.438258 1.39743 106 110 70
0.383875 -0.060356 2.30001 160 151 114
0.51803 0.000818977 1.62991 185 147 138
-0.0451172 0.161318 1.52521 116 100 94
0.137615 0.149004 1.20462 96 102 66
0.25944 0.176402 1.39937 24 12 8
0.359768 0.188448 1.43271 99 88 71
0.173128 0.151525 0.675573 116 73 50
0.323844 0.261556 1.51198 65 36 30
0.313499 0.410347 1.61276 129 109 108
0.423124 -0.070568 1.82068 158 162 121
0.427337 7.10619e-05 1.77889 146 139 102
-0.0588757 0.164066 1.51042 110 79 58
-0.0420955 0.164367 1.55245 183 173 183
0.182723 0.170277 1.22878 26 12 7
0.322921 0.261113 1.51982 74 46 40
0.550321 0.365808 1.33019 118 84 63
0.270943 0.535781 1.70863 135 96 98
0.264283 0.596121 1.73566 137 109 106
-0.13951 0.122505 1.18704 184 178 154
-0.0362786 0.17012 1.52386 66 48 36
0.0161054 0.21892 1.47278 124 78 52
0.535182 0.352146 1.33495 194 184 174
0.26405 -0.0253981 1.66948 100 91 78
-0.142971 0.123212 1.1851 186 180 156
0.314963 0.299268 1.53891 75 48 44
0.223876 0.210172 1.43481 84 56 46
0.189158 0.260186 1.15032 59 28 25
0.3164 0.40001 1.60455 154 134 133
-0.0665691 0.13043 1.53676 140 121 106
0.249863 0.175177 1.41273 100 68 58
0.440293 0.175197 1.44228 190 176 161
0.23284 0.156875 0.836954 150 126 102
0.342626 0.260471 1.51529 42 22 14
0.307407 0.467861 1.63783 108 77 75
0.199251 0.23412 1.18362 114 78 72
0.43772 0.175 1.433 182 171 156
0.184727 0.151924 1.05647 64 37 18
0.537212 -0.0951553 1.72823 156 128 100
0.411921 0.0197617 1.80606 62 44 28
0.43328 0.00194138 1.77001 167 158 132
0.412736 0.0199344 1.80103 65 44 28
0.293677 -0.0275747 1.58118 183 182 150
0.0883041 0.35767 1.55981 98 76 74
0.0855318 0.348847 1.53937 126 98 92
-0.335462 -0.387336 1.40122 78 80 52
-0.0846768 0.372383 1.68524 141 116 93
-0.0489269 0.475038 1.78493 136 102 90
0.280889 0.583087 1.72777 105 64 56
0.267149 0.178457 2.03998 64 43 34
0.412468 0.198855 1.83892 70 56 43
-0.260771 -0.31315 1.42784 82 81 55
-0.317195 -0.361789 1.41496 84 85 57
-0.0503683 0.498431 1.82494 124 88 73
0.0759821 0.15771 1.76734 54 41 30
0.31216 0.243549 1.59105 65 30 25
0.0858643 0.242504 1.46302 111 60 42
0.0704704 0.323973 1.56283 32 11 8
0.28425 0.200444 1.00762 126 96 85
-0.306037 -0.384238 1.41097 122 120 98
0.249547 0.129712 0.896801 170 158 137
0.361928 0.187943 1.43773 103 96 76
0.0229386 -0.282921 1.63086 124 138 94
0.453799 0.053824 1.76342 88 56 36
0.287876 0.282995 1.76511 53 28 24
0.0234153 -0.282678 1.6294 124 137 94
-0.357506 -0.407469 1.38725 76 74 52
-0.354979 -0.40663 1.38018 80 80 56
0.31173 0.00225922 1.59921 84 66 47
0.104049 0.143441 0.956834 110 96 78
0.332121 0.186983 1.6001 95 74 61
0.201544 0.16373 0.648912 98 76 62
-0.12506 -0.0133125 1.84198 170 176 131
0.102612 0.14335 0.929072 118 100 76
0.326626 0.191924 1.48451 51 28 14
0.199562 0.16416 0.663803 113 92 73
0.0863218 -0.26401 1.65517 152 153 108
-0.0434007 -0.190144 1.57814 118 120 79
0.417084 -0.176399 1.52889 96 100 81
0.370177 -0.129641 1.54147 80 86 71
0.303753 -0.0654913 1.56022 112 115 102
0.357078 -0.0793034 1.85217 110 107 76
0.17724 -0.0304999 1.41104 144 147 118
0.0508913 -0.0274791 1.47055 116 118 85
0.323653 -0.0591171 1.9227 160 160 121
0.403119 -0.045217 1.7652 154 163 124
0.17556 -0.00423686 1.36213 132 136 113
0.288978 -0.042248 1.89737 106 96 78
0.311946 -0.0399692 1.87754 166 159 124
0.29399 -0.0378553 1.87876 116 104 79
0.298754 -0.0282439 1.90831 40 16 2
-0.147496 0.050453 1.78087 52 37 12
0.472084 0.0550619 1.78062 152 127 94
0.00802596 0.0851734 1.53928 90 92 84
0.445118 0.0832909 1.67634 44 24 10
0.462784 0.116327 1.60991 100 58 34
-0.109816 0.141416 1.514 84 42 26
-0.0532371 0.144968 1.53101 27 12 4
0.473984 0.138932 1.60726 113 71 50
0.229267 0.14219 1.4591 80 62 48
0.477945 0.146412 1.63079 176 145 130
0.472973 0.154945 1.6098 98 65 49
0.427675 0.164395 1.49937 116 96 78
0.256791 0.181126 1.39884 26 6 4
0.24477 0.190559 1.38696 96 62 49
0.122699 0.188214 1.18497 132 111 80
0.381169 0.203654 1.452 158 140 133
0.476764 0.20761 1.39218 88 88 67
0.195978 0.231964 1.42879 77 30 8
0.222896 0.231045 1.46855 71 34 20
0.339392 0.252932 1.50269 80 58 55
0.499334 0.236985 1.35624 156 155 138
0.368317 0.281067 1.56329 60 32 28
0.174436 0.246491 1.14292 84 88 68
0.406873 0.306416 1.65552 119 94 89
0.305102 0.317521 1.52262 137 108 104
0.327089 0.325752 1.55349 128 106 105
0.325994 0.331739 1.55827 113 90 88
0.40235 0.350112 1.65399 32 9 5
0.223044 0.366062 1.53519 128 101 96
0.392924 0.405694 1.73331 68 34 28
0.377788 0.413865 1.70376 50 20 15
0.31024 0.400432 1.60595 46 20 16
0.317135 0.41556 1.60907 44 18 16
0.230796 0.440986 1.57116 112 67 60
0.306129 0.465288 1.65494 126 98 98
0.34288 0.529217 1.79339 92 60 58
0.217011 0.509793 1.64582 122 89 82
0.222708 0.508013 1.64652 82 34 27
0.114205 0.535819 1.6886 129 92 86
0.210407 0.576086 1.70217 94 53 46
-0.235182 0.411413 1.0114 114 104 90
0.244174 0.587739 1.72453 116 80 76
0.0972349 0.410653 1.00761 80 68 54
-0.462193 -0.506985 1.37179 100 94 50
-0.299116 -0.700022 1.95937 120 122 69
-0.351509 -0.428707 1.42418 158 158 112
0.396911 -0.155912 1.53215 84 90 72
0.369904 -0.133166 1.58088 100 104 90
0.0853524 -0.0932193 1.58227 152 155 110
-0.407838 -0.0831409 1.66269 110 88 39
0.520883 -0.0974227 1.72948 64 44 14
0.290536 -0.0468058 1.98174 108 98 80
0.296987 -0.0406108 1.92037 101 88 62
0.420331 0.0110902 1.79482 85 71 42
-0.155577 0.0334519 1.82422 122 98 76
-0.108876 0.0310034 1.85734 136 128 92
-0.0683196 0.039493 1.74664 32 22 6
0.222332 0.0453063 1.67703 94 90 83
-0.145287 0.0491811 1.77085 60 42 16
-0.134359 0.120445 1.20217 146 144 106
-0.0731376 0.148003 1.52785 76 50 40
-0.0510023 0.146654 1.55101 127 120 110
-0.0583973 0.186763 1.51682 88 50 24
0.37107 0.198703 1.44068 121 100 92
0.38049 0.204574 1.44481 163 143 138
-0.110126 0.23317 1.62188 103 78 56
0.411899 0.269016 1.59802 42 18 14
0.234763 0.264396 1.46625 28 7 4
-0.0902885 0.337182 1.73274 50 20 8
0.325888 0.327384 1.55654 122 99 98
0.223115 0.366439 1.53536 113 84 78
0.327263 0.371907 1.60133 38 20 18
0.316027 0.399337 1.60403 120 98 96
0.308628 0.402437 1.60933 54 26 21
0.250857 0.435375 1.60007 113 75 72
0.367128 0.471144 1.76602 124 90 86
0.214866 0.523872 1.66665 108 78 72
0.0649206 0.555747 1.68758 110 94 73
0.205471 0.574665 1.69969 81 36 28
0.21824 0.579828 1.70573 70 30 26
-0.0455977 -0.194516 1.5903 158 159 112
-0.0136823 -0.168045 1.57837 136 141 99
-0.0214357 -0.0820894 1.50661 66 69 38
0.321783 -0.0612076 1.93339 162 171 127
0.349929 -0.0490868 1.92336 167 170 129
0.304845 -0.0432907 1.9334 165 164 125
0.324419 -0.0329033 1.92034 102 74 52
-0.159053 -0.0102135 1.74686 174 159 113
0.535593 -0.0106305 1.65096 151 116 100
0.436821 -0.00223587 1.799 164 162 126
-0.103399 0.0304659 1.83174 157 150 112
0.222023 0.0445984 1.677 88 84 78
0.450958 0.0399031 1.79848 155 136 113
0.4466 0.0476041 1.7648 59 33 14
0.43766 0.137485 1.60111 122 84 62
0.46198 0.142667 1.50934 176 146 132
-0.0334776 0.163838 1.53353 92 79 82
0.379645 0.207198 1.46786 146 128 122
-0.0251704 0.231583 1.48843 62 26 17
0.0156147 0.232708 1.45779 144 98 76
0.342178 0.252411 1.51559 58 36 33
0.309545 0.406595 1.62927 52 24 20
0.544866 0.369958 1.34702 65 37 14
0.367125 0.463581 1.74183 122 86 82
0.220525 0.449049 1.5969 126 104 103
0.219143 0.459916 1.60778 114 92 88
0.345608 0.531502 1.80221 92 60 58
0.216993 0.530827 1.73988 99 63 58
0.212654 0.57655 1.71457 116 78 72
0.249569 0.587375 1.73137 66 29 25
-0.168136 -0.587644 1.7979 142 144 97
0.681908 -0.370344 1.39774 114 116 72
-0.225336 -0.337171 1.46847 111 116 69
-0.108362 -0.171019 1.46305 108 104 82
0.394861 -0.15247 1.51613 78 84 66
-0.0222899 -0.0874402 1.49531 96 98 70
-0.419196 -0.0863914 1.69431 106 82 37
0.520426 -0.098061 1.73203 54 35 8
0.303647 -0.0673363 1.55357 74 77 62
0.320595 -0.060576 1.91391 162 171 127
0.393728 -0.0428389 1.80794 164 176 134
0.301402 -0.0398959 1.86823 158 149 114
0.325152 -0.0342978 1.92536 106 79 55
0.294216 -0.0230556 1.85004 31 14 3
0.438793 -0.00847527 1.81345 165 168 130
0.505264 0.0126618 1.63738 164 124 110
-0.0692047 0.0372156 1.75897 36 24 9
-0.129163 0.0383266 1.90177 58 28 11
-0.146311 0.0462136 1.78553 47 26 4
0.461761 0.0816603 1.59225 86 42 15
0.44746 0.0881647 1.69201 82 63 48
0.476779 0.101111 1.61147 128 80 64
0.442677 0.105921 1.63114 40 19 8
0.436652 0.148551 1.58596 171 147 136
0.469798 0.15616 1.58289 106 74 58
0.44079 0.172299 1.48362 144 120 104
0.252771 0.179358 1.39486 101 71 67
0.169323 0.172673 1.18382 121 127 104
0.236634 0.205063 1.41396 44 16 10
-0.11452 0.234185 1.64259 88 60 38
0.177311 0.195073 1.2253 148 110 88
0.231332 0.219614 1.4438 173 144 142
0.366431 0.281789 1.56201 64 36 32
0.325027 0.328745 1.56064 106 82 81
0.224046 0.330504 1.51023 96 68 61
0.223284 0.368264 1.53325 116 90 84
0.367352 0.460867 1.73211 116 80 77
0.218035 0.456662 1.60286 100 71 68
0.223841 0.508449 1.64274 78 27 22
0.220478 0.579883 1.70488 70 28 24
0.193541 0.588846 1.72093 120 74 58
0.209785 0.601284 1.70576 97 60 46
0.527164 -0.0886245 1.67868 144 108 77
0.197229 -0.0448145 1.42337 87 86 56
0.51407 -0.0788128 1.72393 66 50 20
0.34984 -0.0499926 1.918 160 160 123
0.297509 -0.0369717 1.8559 126 117 86
0.326934 -0.0347016 1.94065 110 83 58
-0.150649 0.00880475 1.83711 164 150 114
0.434777 0.000978498 1.77859 164 162 126
-0.155343 0.075937 1.51546 158 155 103
0.440137 0.103728 1.6196 38 19 8
0.36006 0.125764 1.53786 56 53 38
-0.0373127 0.161202 1.52054 131 124 128
0.259287 0.176905 1.39211 15 6 4
0.167312 0.172875 1.19576 101 110 83
0.117046 0.182066 1.19519 49 17 6
0.45079 0.18823 1.3938 44 46 24
0.307998 0.197927 1.43601 146 107 88
0.218061 0.206475 1.44886 42 14 10
0.231021 0.219687 1.45477 174 144 141
0.344043 0.258476 1.5177 16 8 4
-0.105327 0.308481 1.72101 88 60 40
0.338149 0.296117 1.55449 32 14 10
0.222349 0.368063 1.53831 113 87 81
0.312519 0.404316 1.60263 66 44 42
0.556463 0.364667 1.35206 82 48 25
0.547572 0.374727 1.3594 66 36 12
0.37425 0.466841 1.76817 84 48 41
0.208498 0.518058 1.66176 88 56 48
0.0694397 0.550859 1.69107 62 46 32
0.201026 0.572352 1.68585 75 28 15
0.221628 0.574597 1.68961 74 28 24
0.247591 0.587456 1.72591 90 54 50
-0.127253 -0.543526 1.79239 102 108 73
-0.25992 -0.311347 1.42415 62 66 38
0.542195 -0.10637 1.76475 118 100 65
0.520358 -0.103816 1.75399 52 34 8
0.415736 -0.0574617 1.79638 164 178 134
0.351452 -0.0487687 1.90654 167 174 132
-0.120045 0.0298676 1.80097 56 25 4
-0.128553 0.041647 1.80007 107 86 66
-0.1004 0.0456983 1.72008 102 82 62
0.494089 0.0871194 1.60499 113 115 83
-0.0669148 0.107757 1.50514 58 54 38
0.443922 0.101308 1.65127 44 26 15
-0.138983 0.122415 1.19505 156 150 120
-0.0636922 0.141457 1.56568 44 28 20
0.228689 0.143176 1.44439 65 46 31
0.117784 0.179935 1.18317 50 18 8
0.34163 0.208969 1.4371 132 100 88
0.196547 0.234254 1.43151 85 38 15
0.22242 0.330627 1.50957 72 44 38
-0.0991522 0.403415 1.82403 124 103 78
0.330042 0.369703 1.60039 38 18 16
0.221915 0.369103 1.53418 102 77 72
0.526546 0.385065 1.40344 71 46 34
0.541907 0.370728 1.33698 65 38 16
0.214638 0.516431 1.65781 101 70 64
0.0251575 0.572588 1.78194 142 110 90
0.190121 0.586541 1.70546 149 101 84
0.258032 0.590961 1.73778 138 108 105
-0.286008 -0.346629 1.39596 116 110 88
-0.260463 -0.31265 1.42778 60 64 37
-0.41175 -0.0851935 1.67334 108 86 38
0.353243 -0.0537475 1.95727 164 168 128
0.373524 -0.0375726 1.9109 164 175 130
0.332221 -0.0304387 1.90671 116 88 56
0.432617 0.00436684 1.73188 166 167 128
-0.110416 0.0252004 1.90454 168 166 122
-0.135514 0.0514208 1.52923 139 94 70
-0.142756 0.0436621 1.75261 83 61 34
-0.117758 0.0555909 1.54109 167 154 106
-0.05214 0.146177 1.55791 109 102 91
0.232687 0.218852 1.42998 175 146 144
0.168101 0.216065 1.17293 37 46 28
0.122873 0.23184 1.12537 93 58 40
0.221672 0.293457 1.48835 48 18 11
0.400667 0.348425 1.67909 64 38 34
0.540655 0.365499 1.35388 170 160 151
0.265475 0.535556 1.69957 110 72 73
0.187544 0.582306 1.68877 147 100 84
0.136116 -0.177527 1.67666 176 179 128
-0.406119 -0.0848496 1.65976 112 90 43
0.51522 -0.0992353 1.75974 52 38 13
0.352217 -0.0803918 1.91902 152 152 118
0.295923 -0.04292 1.91616 132 122 96
-0.157998 -0.00668797 1.60785 168 168 118
-0.0710556 0.0316948 1.80999 24 15 4
-0.148806 0.0387599 1.8948 154 131 110
-0.10844 0.0560894 1.5056 158 146 96
-0.132432 0.067848 1.42122 158 158 104
0.50554 0.0825136 1.62761 130 146 105
-0.0527138 0.144191 1.55331 84 74 64
0.218086 0.163554 1.17696 14 7 4
0.24707 0.174869 1.36578 78 40 28
0.114645 0.17698 1.18357 58 22 11
0.117816 0.201533 1.14625 158 111 82
0.401501 0.268949 1.578 75 49 44
-0.0855546 0.466016 1.88442 100 76 57
0.538975 0.367288 1.32647 73 48 32
0.217638 0.444728 1.57037 100 68 61
0.22868 0.570302 1.6911 66 24 22
0.225735 0.59233 1.72512 135 92 84
0.717254 -0.408501 1.47079 114 117 72
-0.339511 -0.387482 1.39654 56 54 26
0.684206 -0.390997 1.50493 144 142 100
-0.100178 -0.236923 1.54438 110 111 66
0.470911 -0.224559 1.50798 76 84 59
0.4435 -0.200416 1.51684 92 98 79
0.366962 -0.126766 1.54267 101 104 92
-0.0271024 -0.0889744 1.51748 109 111 86
0.447113 0.0891677 1.68752 144 120 107
-0.062561 0.100909 1.63807 25 15 4
0.313398 0.216978 1.44173 132 89 74
-0.0966639 0.342036 1.72925 71 56 36
0.295518 0.524138 1.70074 120 90 88
0.717689 -0.408646 1.47317 126 128 82
0.68562 -0.394234 1.50919 173 174 126
-0.25339 -0.357122 1.44598 86 84 46
0.471414 -0.225279 1.50917 74 83 58
0.444948 -0.202538 1.51732 88 95 76
-0.105683 0.23728 1.62109 72 46 24
0.312794 0.216505 1.44091 150 109 93
0.223839 0.331762 1.51175 114 88 82
-0.32188 -0.405947 1.42319 163 162 116
0.676463 -0.349769 1.37291 108 110 71
0.399142 -0.160001 1.54177 68 76 59
-0.150341 -0.00138151 1.54548 109 78 56
0.464026 0.114664 1.63029 130 86 64
-0.162688 -0.287456 1.50381 126 129 90
-0.131747 -0.262684 1.52592 119 120 76
0.313049 0.412197 1.60852 98 78 76
-0.309294 -0.356666 1.41274 55 58 36
-0.0595679 -0.414473 1.70126 96 103 68
-0.410626 -0.083741 1.67241 96 72 26
-0.0598716 0.143785 1.55149 46 30 22
0.0968895 0.307944 1.43991 27 6 4
0.207785 0.466235 1.60485 54 14 6
-0.135443 -0.265318 1.53361 128 128 84
0.535098 -0.0816335 1.71152 123 90 58
0.2015 0.529485 1.65923 59 18 12
-0.194049 -0.313016 1.48026 114 117 69
0.534457 -0.0777552 1.69286 108 73 42
0.539329 -0.0440686 1.66293 140 101 81
0.546182 0.375904 1.3574 82 54 31
0.464438 0.0413719 1.63411 124 110 74
0.514676 -0.315581 1.53975 109 111 74
0.248054 0.591683 1.72826 86 52 48
0.536311 -0.0820059 1.7041 114 80 51
0.367401 0.281714 1.56351 54 25 22
0.241928 0.586906 1.7265 103 66 64
0.248546 0.589171 1.73316 76 40 36
0.553087 -0.16868 1.70209 84 76 42
0.217032 0.510733 1.64479 126 96 94
0.249268 0.587626 1.7291 82 48 43
0.272031 0.595178 1.74653 89 54 48
0.204769 0.511913 1.6473 74 25 16
0.270492 0.59416 1.74303 88 54 48
0.53089 -0.117254 1.75389 118 116 78
0.212402 0.514438 1.65917 102 60 53
-0.284458 -0.380726 1.43533 107 104 58
0.331213 0.262642 1.51061 28 10 6
0.177007 0.208201 1.55117 65 29 19
0.263408 0.591373 1.76065 108 74 71
0.454831 -0.0834518 1.74648 147 158 118
0.0159444 0.319552 2.18029 95 66 56
-0.0732168 0.471577 1.79963 138 116 94
0.367776 0.0713384 0.962961 146 138 108
-0.402447 0.242281 1.95463 107 93 74
0.444358 0.294678 1.8529 47 22 14
0.087123 -0.00859616 1.39652 131 130 92
0.439826 0.268963 1.77842 113 90 82
0.431795 0.231223 1.61577 70 57 52
0.347924 0.345081 1.75005 39 17 13
0.346608 0.344253 1.74946 52 29 26
0.164441 0.232542 1.86751 94 71 51
-0.277905 -0.370858 1.52669 104 103 62
0.445587 -0.200265 1.51344 88 92 74
0.271112 0.232903 1.99633 88 60 54
-0.349186 -0.412889 1.38276 70 71 50
0.491149 0.0273313 1.53551 88 58 44
0.224293 0.3314 1.51449 123 99 96
0.253051 0.178421 1.39491 102 72 65
-0.100787 0.231931 1.59782 101 74 54
-0.0962272 0.257747 1.59046 138 126 100
0.201178 0.236807 1.5544 86 45 28
-0.288214 -0.38269 1.44027 106 104 63
0.236188 0.205119 1.41886 64 34 24
-0.285707 -0.380923 1.4336 119 117 72
0.447961 0.089161 1.53726 69 41 23
0.458344 0.166967 1.77837 97 74 54
0.30473 0.474575 1.66267 122 98 94
0.293651 0.536951 1.71163 112 84 82
-0.0701838 0.12135 1.64297 74 62 42
-0.424012 -0.086465 1.70915 117 100 50
-0.0717064 0.122824 1.64396 106 97 77
0.218427 0.449055 1.59632 106 82 75
-0.109671 0.211255 1.63971 82 46 22
0.347239 0.191381 1.46182 36 26 11
0.522152 0.369672 1.36921 172 164 155
0.293225 0.530868 1.7228 101 72 68
0.456452 0.187943 1.429 130 121 101
-0.115944 0.254883 1.69411 138 121 94
0.272926 -0.732963 1.8528 116 122 66
-0.386592 -0.456895 1.37738 93 94 48
-0.0933991 -0.504344 1.75161 116 121 76
0.716634 -0.387106 1.4772 60 62 30
-0.284903 -0.381508 1.43679 94 94 52
0.674611 -0.387538 1.50627 118 122 80
-0.083848 -0.452757 1.71342 94 102 67
0.494139 -0.219042 1.00361 88 91 51
-0.225266 -0.336209 1.4704 76 79 38
-0.221841 -0.329449 1.46563 88 92 60
0.600972 -0.143993 0.855109 148 152 102
0.59171 -0.137182 0.855742 74 80 37
0.590435 -0.132738 0.835091 139 147 102
0.42054 -0.180392 1.53024 84 92 72
-0.0113826 -0.166989 1.57662 106 112 71
-0.00112827 -0.118974 1.54868 84 88 58
-0.276219 -0.125312 1.66073 119 118 66
0.0260888 -0.0977366 1.56156 84 88 56
-0.0200068 -0.0820772 1.50367 57 60 28
0.535185 -0.0782788 1.71068 90 57 24
0.439906 -0.0757229 1.76265 137 148 110
0.362939 -0.0787537 1.87602 148 150 118
-0.0580835 -0.0398751 1.67893 119 124 82
-0.146929 -0.00294239 1.55423 154 142 104
0.536348 -0.0114371 1.64748 124 92 72
-0.126344 0.0376361 1.50823 144 132 92
0.500072 0.0888457 1.69451 104 106 75
0.480125 0.0992216 1.63697 129 82 64
-0.11401 0.124785 1.49447 86 45 23
0.228917 0.261988 1.46261 86 53 48
0.371238 0.280481 1.56629 56 26 22
-0.100763 0.327345 1.72652 146 124 102
0.228123 0.290857 1.47981 113 90 85
0.226837 0.29795 1.48591 109 85 80
0.325741 0.33285 1.55986 117 92 90
0.219879 0.406789 1.577 104 64 56
0.313763 0.416126 1.616 110 86 83
0.374174 0.529839 1.87859 87 51 43
0.34327 0.528903 1.79611 84 52 48
0.221709 0.509759 1.6489 68 23 16
0.21024 0.510628 1.64549 70 25 16
0.295376 0.523946 1.69997 127 98 95
0.322431 0.568561 1.81427 85 54 51
0.208076 0.577685 1.70964 121 85 76
0.250624 0.588132 1.72803 78 40 32
0.203292 0.593423 1.7187 81 36 21
-0.458041 -0.505143 1.36595 90 84 39
-0.389508 -0.457932 1.38141 126 126 76
0.716045 -0.412277 1.49382 102 102 54
-0.291496 -0.384525 1.43337 144 145 96
0.494235 -0.220061 1.00566 104 107 64
0.594948 -0.136478 0.856619 118 126 82
0.600888 -0.135344 0.85172 52 57 10
-0.0149621 -0.168688 1.58767 106 111 69
-0.310252 -0.128743 1.65987 104 103 52
-0.358566 -0.106473 1.64842 54 44 10
-0.40081 -0.0798778 1.66875 109 89 38
-0.0044744 -0.0684473 1.53512 68 68 34
0.548563 -0.0966398 1.76497 160 153 118
0.361287 -0.0797669 1.8991 131 132 102
0.396563 -0.0441541 1.78231 120 134 88
-0.156574 -0.00418769 1.57336 120 103 68
-0.156327 -0.00694032 1.74972 158 144 98
-0.0955889 0.0413109 1.77142 45 28 10
0.457213 0.0669656 1.75169 40 14 0
0.452549 0.0742008 1.74369 52 30 14
0.417013 0.147332 1.57024 60 34 18
-0.0952807 0.174542 1.51954 156 120 92
-0.11719 0.219773 1.64774 128 104 77
0.367708 0.19469 1.43407 100 82 68
0.226339 0.297529 1.48884 109 90 84
0.156092 0.263397 1.09748 108 114 98
0.304033 0.317087 1.52237 83 52 48
0.321807 0.368223 1.57892 110 80 76
0.221881 0.403542 1.56287 96 53 46
0.41124 0.447828 1.88664 118 97 89
0.252093 0.430629 1.57258 110 66 61
0.220367 0.448215 1.59539 106 76 72
0.210447 0.509503 1.64186 87 38 26
0.24117 0.588571 1.73146 110 71 66
0.0971226 0.40943 1.00653 93 84 66
-0.348583 -0.4054 1.38415 90 91 70
-0.0951343 -0.505269 1.75317 107 114 70
-0.313947 -0.392532 1.41641 60 61 40
0.718407 -0.392775 1.49187 58 59 32
-0.288425 -0.382548 1.42716 144 145 96
-0.284292 -0.381054 1.4352 90 90 51
-0.0416513 -0.189319 1.57391 106 109 68
0.418171 -0.177884 1.52854 76 84 62
0.561641 -0.179394 1.78062 85 78 38
0.509227 -0.0746444 1.71987 66 55 22
0.51443 -0.070673 1.71184 140 136 98
0.51834 -0.0612377 1.68175 158 152 114
0.366045 -0.0715263 1.88645 76 64 36
-0.05073 -0.0349458 1.70108 158 164 115
-0.0281683 -0.0224719 1.68665 160 164 120
-0.156715 -0.0124676 1.74845 120 94 56
-0.161606 -0.00701135 1.76747 158 144 98
-0.120137 0.0435586 1.77046 129 111 94
-0.131553 0.0519697 1.51379 94 58 30
-0.134532 0.120317 1.51238 152 130 108
0.441842 0.149756 1.5722 54 22 2
-0.0929117 0.212495 1.58354 76 40 15
0.197956 0.231675 1.42294 85 38 16
-0.104172 0.309077 1.72689 56 20 4
0.330484 0.2615 1.50669 30 6 3
0.162609 0.234396 1.12431 102 110 90
0.226364 0.292253 1.48367 107 84 78
0.220919 0.403011 1.56534 94 51 44
0.250471 0.432823 1.58601 104 60 56
0.383283 0.457004 1.76433 66 27 16
0.218983 0.460934 1.60682 115 93 90
0.374237 0.526053 1.85853 86 48 40
0.208865 0.510954 1.64585 74 27 16
0.216015 0.511165 1.648 114 80 72
0.116535 0.533542 1.67465 116 78 68
0.218066 0.581057 1.71417 68 26 19
-0.123047 -0.538383 1.78056 92 100 62
0.717226 -0.391454 1.4891 58 60 32
-0.285162 -0.380669 1.43555 94 94 58
0.678898 -0.388548 1.49961 69 69 26
0.592697 -0.138502 0.86107 72 78 36
0.418983 -0.17913 1.52598 78 84 63
0.397725 -0.156529 1.52844 59 68 49
-0.352025 -0.106997 1.63994 55 44 9
0.509151 -0.0752602 1.73633 86 78 43
0.349336 -0.0490725 1.91905 154 154 115
-0.109598 0.0286894 1.76044 55 22 5
-0.0605425 0.0321777 1.70966 133 132 98
0.109955 0.045288 1.30778 64 66 44
0.104232 0.0496394 1.32635 33 35 12
-0.106393 0.124244 1.46797 95 58 36
-0.0841517 0.133495 1.4058 162 142 118
-0.00898278 0.21282 1.47347 84 38 16
0.342343 0.212271 1.46301 105 70 56
0.196406 0.232041 1.42101 74 28 7
-0.113827 0.277222 1.70982 93 69 46
0.154742 0.265839 1.09826 112 116 98
0.383051 0.402373 1.69446 98 70 70
0.250637 0.431505 1.5843 104 60 56
0.370936 0.471151 1.78402 60 29 24
0.219915 0.451777 1.59837 114 88 86
0.203575 0.518125 1.66836 66 23 12
0.109362 0.556395 1.7474 90 56 52
0.206604 0.568702 1.67354 69 24 12
0.248687 0.589724 1.73411 78 40 34
-0.262462 -0.653995 1.85386 78 82 30
0.70323 -0.386125 1.45493 67 64 30
-0.310522 -0.357601 1.41268 48 52 28
0.593357 -0.139635 0.866973 78 86 43
0.0776042 -0.103229 1.58544 162 163 122
-0.413185 -0.0851066 1.67541 96 74 26
0.509732 -0.068956 1.71365 157 162 121
0.377782 -0.0353024 1.84906 150 166 123
-0.145455 0.0107944 1.81414 146 134 96
-0.0860948 0.041898 1.71002 47 25 9
0.446565 0.0880031 1.6798 90 64 50
-0.0528057 0.153278 1.54427 95 84 76
-0.105337 0.176303 1.55109 159 122 95
0.169971 0.171421 1.17991 110 119 94
-0.100049 0.216516 1.60282 89 56 30
-0.114326 0.232387 1.64014 94 68 46
-0.100752 0.32297 1.72261 136 114 89
-0.224479 0.401269 0.990087 125 114 98
0.259472 0.596634 1.76723 134 98 92
0.267187 0.598788 1.75644 90 58 50
0.532047 -0.114793 1.7467 154 158 114
0.51884 -0.103164 1.75356 50 34 8
0.37483 -0.032947 1.80873 148 160 117
-0.131293 0.0430612 1.84162 124 116 91
0.463864 0.121635 1.62689 108 66 40
0.375517 0.205676 1.44741 152 132 131
0.196868 0.233476 1.42728 85 38 16
-0.114801 0.329039 1.76146 146 128 102
0.313185 0.408854 1.60808 78 56 54
0.404959 0.480017 1.86699 72 40 30
0.220812 0.450506 1.58004 98 71 66
0.203048 0.522611 1.67098 64 19 11
-0.368011 -0.439408 1.39491 104 110 66
0.719741 -0.423347 1.52732 136 136 84
0.355344 -0.0496122 1.90761 154 164 122
-0.166509 -0.0110909 1.76317 152 142 96
0.442375 0.115012 1.62544 108 68 44
-0.0772538 0.166047 1.56382 82 50 32
0.370912 0.206525 1.46134 142 117 112
0.235158 0.215302 1.42184 160 132 128
0.17503 0.209543 1.20571 166 125 98
0.217645 0.45111 1.58927 93 56 50
0.108718 0.544472 1.70165 87 48 40
-0.20596 -0.319648 1.50897 91 92 49
0.487251 -0.117693 1.76349 150 164 120
0.101977 0.163012 1.27073 107 80 58
-0.160611 -0.286614 1.50104 110 114 71
-0.127937 -0.261104 1.52085 112 115 70
0.269662 0.593486 1.77666 112 78 72
0.419719 0.0102204 1.77911 79 66 39
0.446407 0.166168 1.371 116 94 80
0.369303 0.194541 1.42804 102 84 69
0.206233 0.57523 1.69256 76 30 18
0.0579294 -0.241499 1.60491 104 112 75
-0.0961465 0.214425 1.5895 92 56 30
-0.456656 -0.499881 1.36095 80 72 31
-0.337391 -0.388541 1.39858 53 53 28
0.223888 0.330591 1.51173 89 62 56
0.552302 0.369424 1.35445 93 58 37
0.713603 -0.401773 1.50014 56 57 23
0.424707 0.0105298 1.752 104 86 60
-0.145808 0.0413761 1.77516 55 32 12
-0.363902 -0.414435 1.39311 44 50 28
-0.101534 0.00453954 1.63283 108 94 58
0.532497 -0.00656159 1.6522 142 104 92
0.279956 0.585103 1.78714 66 30 27
0.233582 0.216491 1.42662 159 128 124
0.112764 0.534947 1.68828 100 52 42
-0.334643 -0.41651 1.40616 124 122 80
-0.121808 0.119988 1.46986 140 129 102
-0.192086 -0.313035 1.4834 112 111 64
0.440526 0.156436 1.55161 54 26 8
-0.19175 -0.312049 1.48249 100 98 54
0.552845 -0.181561 1.74168 73 70 28
-0.0894234 0.185905 1.49971 94 48 25
0.549963 -0.174404 1.72289 72 65 21
0.556232 -0.178166 1.71843 118 115 75
-0.123779 0.347666 3.51895 116 88 71
0.553517 -0.182295 1.73432 91 88 46
0.0506758 0.305772 2.16763 140 109 91
-0.288574 -0.381152 1.43824 90 90 60
-0.283558 -0.380743 1.43205 105 105 65
0.435751 -0.61657 1.72758 96 104 60
0.387352 0.137042 1.49474 46 42 33
0.452017 0.187121 1.56534 116 94 84
0.409522 0.377006 1.86157 72 51 48
-0.0696032 0.556759 2.124 112 98 87
-0.77749 -0.0149935 4.00571 134 128 104
0.293288 0.536453 1.71358 120 96 94
-0.15526 -0.0166437 1.60557 154 148 99
-0.00544227 0.0333486 1.34483 102 82 51
0.110651 0.038894 1.31893 40 41 10
0.361846 0.125719 1.52857 63 60 45
0.43615 0.150582 1.57599 158 132 122
0.331938 0.247237 0.836675 78 48 44
0.316912 0.398995 1.60284 126 102 100
0.262729 0.431314 1.59375 120 76 68
0.216907 0.522459 1.65534 108 80 79
-0.349519 -0.404883 1.38579 92 94 75
0.204907 -0.254342 1.43843 115 124 72
0.439849 0.147534 1.59701 66 35 16
0.296386 0.525318 1.70104 122 94 90
0.717945 -0.409017 1.47592 159 160 112
0.540792 -0.0369293 1.64048 122 84 56
0.341208 0.2598 1.53491 33 16 12
0.314615 0.408595 1.60567 104 84 82
-0.226944 0.406126 0.99764 100 90 70
0.433274 -0.623892 1.73605 93 101 52
0.42149 0.142527 1.57543 86 63 50
0.380361 0.405694 1.70349 66 42 40
0.375471 0.467062 1.76832 49 20 15
0.30327 0.470742 1.66647 104 76 74
-0.0918382 0.338097 1.71269 62 42 20
-0.108082 -0.0164029 1.67734 100 94 63
0.437135 0.173166 1.5226 104 86 72
-0.128745 0.282173 1.76684 110 88 64
-0.108141 -0.0156173 1.67682 99 92 60
0.446919 0.0690685 1.59943 41 18 4
0.459194 0.183205 1.54972 106 87 74
-0.0997818 0.236859 1.622 124 96 73
0.434658 0.349842 1.78085 84 62 49
0.515479 -0.0634322 1.688 146 146 106
0.447133 0.0679128 1.62129 40 18 5
-0.103381 0.199274 1.57019 150 122 94
-0.100827 0.323931 1.72509 130 110 84
0.374997 0.524099 1.84812 94 63 52
0.15371 -0.144301 1.5163 149 158 106
0.449239 0.0616211 1.7015 34 13 2
0.45811 0.188677 1.54465 103 88 73
0.113491 0.544591 1.70122 106 76 74
0.472632 0.0347789 1.66343 148 158 112
0.471277 0.0439584 1.63877 136 127 86
0.469961 0.157804 1.59175 106 72 55
0.437676 0.169522 1.5676 149 122 110
0.4695 0.197685 1.69548 127 116 102
-0.112717 0.232296 1.63328 127 108 84
0.428838 0.347516 1.75083 85 49 38
-0.0783789 -0.0663171 2.10338 156 162 110
-0.0639393 0.116837 1.27328 134 133 101
-0.105946 0.216769 1.62653 88 56 32
0.468467 0.194978 1.67245 126 113 100
0.431201 0.349962 1.76637 84 52 39
0.0902054 0.416906 1.03434 114 106 88
0.532012 -0.0847653 1.70088 136 102 72
-0.0429862 0.047301 1.47397 140 126 99
0.470898 0.0318703 1.64653 150 162 115
-0.0155643 0.105157 1.39294 38 30 9
-0.0631504 0.116939 1.26976 134 133 101
-0.00569202 0.127476 1.12859 148 137 104
0.425189 0.125517 1.55753 44 19 9
0.41417 0.151138 1.53069 60 40 22
0.547489 0.36265 1.32978 92 60 36
0.268339 -0.743627 1.88575 112 114 62
-0.314915 -0.392487 1.41299 48 52 30
-0.317822 -0.389418 1.40565 98 100 80
-0.306804 -0.385286 1.41308 76 80 60
-0.0539668 -0.408585 1.69129 92 102 67
-0.225589 -0.336799 1.47094 77 80 37
-0.0749367 -0.386612 1.66979 128 128 80
-0.193999 -0.313105 1.48732 83 85 44
0.393998 -0.152699 1.53419 86 92 76
0.000837566 -0.115873 1.55629 80 82 54
-0.231456 -0.116186 1.65287 104 102 50
0.543515 -0.0536004 1.68004 134 100 80
-0.155719 -0.00266525 1.55881 78 56 30
0.127675 0.0398476 1.61946 32 24 4
0.117585 0.0769436 1.28108 91 91 65
-0.130858 0.0998839 1.68873 112 96 84
0.176808 0.0917683 1.25192 116 126 96
-0.0629224 0.169576 1.53422 62 29 12
-0.0594381 0.190021 1.52359 83 44 16
0.176902 0.176342 1.47082 35 16 9
0.172828 0.189027 1.23694 131 97 70
0.171298 0.209538 1.2113 149 111 86
0.129499 0.268214 1.45627 160 114 103
0.305103 0.317117 1.52018 116 83 77
0.382817 0.406715 1.70797 124 98 96
0.262891 0.429839 1.58855 118 71 65
0.366299 0.463219 1.74722 126 97 94
0.542372 0.349512 1.26587 157 140 131
0.222066 0.455499 1.6108 63 26 22
0.556642 0.363294 1.33378 122 99 79
0.105153 0.476156 1.63794 130 95 86
0.374056 0.468002 1.74301 46 16 10
0.218933 0.463627 1.61013 120 92 90
0.306103 0.463614 1.65403 114 80 80
0.370944 0.535883 1.8926 90 53 46
-0.23568 0.408653 1.00758 104 90 75
0.216962 0.510305 1.64518 125 95 92
0.120529 0.540879 1.69145 56 16 12
0.215732 0.590762 1.71486 80 36 24
-0.460387 -0.50739 1.3685 85 82 34
-0.116756 -0.525506 1.7732 121 126 82
-0.31 -0.386947 1.41426 83 86 65
-0.254793 -0.358536 1.45484 108 107 63
-0.195807 -0.313558 1.48952 86 88 44
0.0532125 -0.241688 1.61745 103 110 76
0.0166124 -0.142671 1.60175 92 99 46
-0.156058 -0.0927864 1.67475 121 124 72
0.54798 -0.102081 1.74363 134 130 94
-0.0934101 -0.0584098 1.70182 128 130 80
0.100345 -0.0308132 1.419 100 103 63
-0.158855 -0.0108621 1.75367 142 120 80
-0.143611 0.0085078 1.80892 142 127 94
0.110195 0.0486143 1.30883 35 30 8
0.123984 0.0385688 1.61252 36 20 6
0.171582 0.0573115 1.2996 98 108 78
0.177069 0.0914137 1.25145 115 124 94
0.171032 0.125933 1.23039 87 102 72
-0.057372 0.18723 1.51328 108 66 39
-0.091911 0.1918 1.51798 114 71 44
0.178024 0.182115 1.4622 94 67 57
0.165942 0.198316 1.16585 94 102 80
0.17044 0.209633 1.21648 156 116 91
0.224712 0.229641 1.44112 73 36 22
0.171276 0.22363 1.17003 54 58 39
0.129237 0.26789 1.45562 148 102 90
0.227933 0.261049 1.46267 75 38 32
0.226863 0.291654 1.4831 100 74 70
0.114457 0.309415 1.4964 94 48 40
0.0844744 0.349756 1.54446 120 88 79
0.224912 0.331591 1.51023 114 88 82
0.0995904 0.35041 1.52895 45 14 8
0.396614 0.345656 1.67852 97 66 64
0.321057 0.368985 1.58455 108 78 73
0.102032 0.418977 1.59878 51 16 11
0.541567 0.362717 1.34008 160 144 134
0.223674 0.454218 1.60312 63 26 22
0.366639 0.468776 1.7438 110 84 82
0.103288 0.486592 1.65258 107 81 76
0.550204 0.373141 1.35245 96 66 48
0.212252 0.468282 1.61253 50 12 4
0.346155 0.5304 1.81331 121 92 90
0.117837 0.543157 1.70091 72 31 23
0.222011 0.517196 1.61862 74 38 34
0.327265 0.564632 1.78493 93 60 55
0.221071 0.588736 1.71803 93 46 33
0.232082 0.599326 1.75016 146 110 106
-0.311974 -0.387149 1.41415 81 85 62
-0.127065 -0.260513 1.51589 105 108 64
0.0331609 -0.268348 1.63224 86 96 56
0.39573 -0.153824 1.53339 76 81 64
0.196242 -0.0469967 1.43996 96 94 58
-0.140049 0.00962903 1.79901 138 123 90
-0.153372 0.0414839 1.7994 51 28 10
-0.114568 0.0415234 1.7584 126 106 90
0.124084 0.037639 1.60909 36 19 4
0.169093 0.0453431 1.35002 30 28 12
0.173417 0.0584982 1.29196 106 117 86
0.112871 0.0769443 1.29611 89 90 66
-0.116032 0.125157 1.49542 97 56 36
-0.0726771 0.229279 1.55197 118 90 68
0.238629 0.226778 1.439 82 46 32
0.169045 0.224205 1.17434 54 58 39
0.129474 0.267718 1.45624 134 88 76
0.343094 0.260573 1.51636 24 8 4
0.0881245 0.349438 1.53732 110 81 72
0.384037 0.403445 1.70081 102 76 76
0.364881 0.465499 1.74208 92 60 58
0.357922 0.470151 1.74923 85 52 49
0.10309 0.485348 1.65257 120 93 88
0.211439 0.466495 1.60854 54 12 6
0.348224 0.529287 1.79717 123 94 92
0.228796 0.500376 1.60492 102 66 62
0.110071 0.548955 1.7099 116 87 82
0.325176 0.566716 1.79821 87 55 49
-0.264401 -0.656917 1.86212 96 99 42
-0.25447 -0.3578 1.45293 92 92 51
-0.169284 -0.0362106 1.60729 70 52 32
-0.0830388 0.186766 1.49002 100 56 28
0.178956 0.188143 1.22091 114 84 58
0.129077 0.268041 1.45376 148 102 90
0.335849 0.255395 1.51414 84 55 51
0.312851 0.4145 1.62048 112 94 92
0.364564 0.465097 1.74566 89 59 56
0.375142 0.46416 1.74265 42 15 10
0.528326 0.372197 1.3712 158 146 139
0.107606 0.476324 1.63274 125 95 88
0.360012 0.473324 1.72676 53 24 20
0.346098 0.527919 1.78097 108 74 74
0.113544 0.5452 1.69635 112 85 80
0.315015 0.570513 1.81339 114 84 82
0.19098 0.590361 1.71725 150 99 82
0.250116 0.588788 1.72977 84 46 38
-0.268428 -0.659756 1.87213 86 90 32
-0.287584 -0.350522 1.40006 90 90 67
-0.265715 -0.358484 1.48511 86 89 52
-0.23846 -0.338493 1.45025 50 55 24
-0.229203 -0.337965 1.47734 68 71 30
-0.20601 -0.318035 1.50675 91 92 48
0.498188 -0.252425 1.52133 78 83 60
-0.0999551 -0.235677 1.53794 94 100 57
0.441518 -0.201878 1.52786 56 64 42
-0.0151361 -0.1679 1.58914 114 118 74
0.0862928 -0.0730232 1.5868 48 54 13
0.194017 -0.0477039 1.44314 82 81 43
-0.166383 -0.037034 1.5997 85 66 48
-0.167934 -0.0110711 1.77203 161 150 103
-0.0653185 0.0950334 1.52523 116 100 83
0.171053 0.0910162 1.26412 89 98 64
0.183428 0.169277 1.45587 30 13 8
0.220523 0.182639 1.41935 24 10 8
-0.0740094 0.22817 1.55337 102 68 48
0.151495 0.219229 1.27726 132 96 72
0.128248 0.266846 1.45409 122 74 62
0.108721 0.312604 1.47038 22 4 2
0.165224 0.338777 1.5146 42 8 4
0.101345 0.415611 1.57587 100 71 66
0.382297 0.45863 1.76897 56 24 16
0.354765 0.477324 1.73911 53 24 21
0.0296663 0.561991 1.77398 76 35 19
0.113401 0.544284 1.69332 100 72 68
0.715847 -0.511005 1.90194 96 102 60
-0.243275 -0.34823 1.44842 112 113 72
-0.0693392 -0.211195 1.55297 94 96 58
0.393818 -0.15593 1.53721 44 49 32
-0.163296 -0.034046 1.59553 67 47 28
-0.16127 -0.0104097 1.75207 156 143 98
-0.295347 0.110519 2.13108 74 62 48
-0.1174 0.136266 1.50123 163 141 117
0.184823 0.159869 1.43253 61 40 29
-0.10291 0.189103 1.53144 94 50 22
0.168679 0.191914 1.24755 153 112 84
0.346227 0.256708 1.50962 22 8 6
0.324652 0.327981 1.54968 72 46 44
0.553018 0.363792 1.34381 82 41 16
0.227174 0.574445 1.67885 78 31 22
-0.119477 -0.243145 1.57617 78 82 48
-0.0721815 -0.211853 1.55686 104 107 67
0.53362 -0.0818649 1.71366 120 85 53
-0.138549 0.0356943 1.75873 66 38 20
-0.108968 0.099467 1.62448 112 96 78
-0.114169 0.11668 1.44502 101 97 57
-0.00902887 0.119706 1.42958 37 22 8
0.214053 0.180526 1.42226 18 6 4
0.164841 0.339279 1.51605 46 10 4
0.334688 0.366884 1.58888 34 16 13
0.105977 0.47708 1.63345 115 77 70
0.194323 0.531668 1.66338 51 15 8
0.197365 -0.257239 1.45862 98 104 54
-0.35397 -0.107585 1.6338 122 115 66
-0.198761 -0.0643207 1.62223 144 140 85
-0.167224 -0.0368052 1.59783 86 66 47
-0.098441 0.0319746 1.75698 49 22 10
-0.0157703 0.152101 1.48118 33 24 16
-0.106656 0.184772 1.52253 108 64 44
-0.0924149 0.203112 1.54012 161 138 110
0.215398 0.171933 1.40512 14 6 4
0.202812 0.243776 1.43393 171 120 98
