ply
format ascii 1.0
element vertex 1382
property float x
property float y
property float z
property uchar red
property uchar green
property uchar blue
end_header
4.8473 -1.56826 15.4147 88 81 36
-3.17409 -0.956634 14.6407 85 74 38
0.691899 -0.888533 14.3545 204 211 164
4.75111 -0.354226 14.5617 154 116 91
2.41153 -0.0556551 12.5298 187 189 157
0.111784 -0.0596992 15.7066 54 24 14
-0.512921 1.44691 14.0763 86 60 45
-0.284615 1.45978 12.699 138 122 110
-0.173545 1.48434 12.5168 64 42 30
3.23931 2.20968 13.7333 70 42 36
-0.224728 2.75053 14.5775 60 26 12
2.9556 2.89731 13.7324 52 29 22
-0.777534 3.45569 15.5293 139 116 92
4.69364 3.32655 12.424 206 198 192
1.31456 4.39712 12.3295 86 49 35
2.23807 4.84787 14.1205 121 86 84
-3.10968 -0.962758 14.4789 106 98 60
4.70557 -1.05948 15.497 138 140 102
-0.185496 -0.254458 14.4331 202 208 162
-1.19077 -0.151886 16.6588 192 202 156
-1.17116 0.249664 13.5743 177 152 116
3.29013 1.79962 13.007 166 148 144
1.04097 1.70835 10.3799 192 154 134
-0.872401 2.34393 14.2675 99 67 46
3.57568 2.40199 14.2275 112 82 80
4.50787 3.28656 12.1617 172 150 137
1.07059 4.76808 13.7586 78 34 27
-2.15892 -2.98727 12.7898 131 132 106
-0.262787 1.52378 13.6411 117 105 104
2.83652 3.32205 14.2617 98 68 64
4.95159 3.25082 12.0171 108 72 52
0.927869 4.24295 14.6781 150 118 112
2.31552 5.13105 15.1628 134 100 97
-0.297283 -0.391081 17.305 110 101 69
0.176602 0.66175 11.829 110 112 92
4.5705 2.31576 11.8772 160 156 132
4.74383 3.25754 11.9213 152 138 129
-0.326832 1.44331 13.6343 106 88 85
2.13514 -0.53662 4.68611 152 153 106
1.54365 1.14913 10.9297 130 136 114
-0.363321 1.4416 13.3504 161 149 150
4.83619 3.29015 11.9628 95 66 48
-2.01439 -2.98856 13.0175 126 128 84
2.21207 1.61139 12.4486 114 83 74
4.86913 3.32451 12.1355 85 54 36
-0.0117421 -0.371151 17.7842 132 118 90
-0.334443 1.43373 13.3576 183 173 183
0.145852 1.94365 13.0794 124 78 52
-0.95663 2.20091 14.906 129 92 70
4.93333 3.27607 12.0031 118 84 63
3.32094 4.18332 15.8049 116 78 73
2.02858 4.84597 14.1091 96 58 48
1.05186 1.39703 10.94 76 64 49
1.00426 1.66786 10.6344 132 89 70
2.95772 3.31033 14.42 74 41 38
-1.85222 -0.635995 14.6203 184 184 139
4.0636 -2.60318 15.1926 136 138 98
3.87076 1.16546 14.0502 78 48 32
2.60701 1.92935 33.6456 36 21 6
2.44177 2.14914 31.0588 102 88 73
1.5032 1.54358 10.5256 147 152 132
-2.71726 -3.40992 12.4785 124 125 102
6.08229 -3.71418 14.4336 168 169 124
4.224 0.901532 14.4406 144 104 85
4.75092 -0.0906044 14.5594 166 134 116
4.23754 0.909267 14.4235 142 100 82
4.10214 1.03192 14.3113 132 90 68
4.77286 -0.0669093 14.6754 168 137 120
0.736802 3.159 13.9258 89 56 50
2.71476 3.74082 14.4277 65 34 30
2.01425 4.94093 14.3647 153 127 113
1.8361 5.0271 14.3552 168 126 117
3.96653 0.307445 15.7549 117 94 80
2.9073 1.69767 13.1415 42 24 16
2.38701 5.01584 14.8187 128 90 86
4.61759 -0.839102 15.4242 86 66 37
2.54167 -0.394316 14.6838 152 156 132
2.31036 -0.191182 14.3863 96 92 82
2.52347 -3.98697 17.349 176 176 137
4.1903 1.27012 14.5256 114 72 50
0.100905 -2.56378 10.654 123 125 71
0.112484 -2.55595 10.6916 97 102 49
5.15023 -2.84699 13.5199 104 103 76
0.125987 -2.53503 10.6867 94 101 48
0.100807 2.6529 10.7625 88 68 50
1.82846 1.4871 12.6621 34 18 12
-0.199111 1.65665 13.8445 50 25 17
-1.00933 0.608699 14.2927 59 48 26
-1.66379 -0.301327 17.5906 160 138 102
5.96122 -3.08601 12.6617 170 168 133
2.89984 -0.0906939 15.3455 48 27 12
2.57187 -0.201106 13.9397 164 162 130
1.93946 5.68528 17.4384 120 78 72
2.5322 -1.01772 19.5197 136 140 106
3.54024 -0.427207 15.7938 164 174 134
2.92805 2.60664 13.6206 132 106 104
2.87079 2.63781 13.6969 54 30 24
2.89206 2.93205 13.8693 143 124 120
-1.86601 1.34358 14.987 184 176 150
2.27943 -0.572925 5.21026 130 126 103
3.83761 -5.46994 15.2624 97 105 66
-1.50309 -5.20867 15.9358 118 120 78
0.766579 -2.33677 14.661 152 153 108
4.18139 -1.99067 13.3934 86 94 70
4.84274 -1.58352 15.2048 86 80 36
4.95719 -1.61996 15.5008 155 151 111
4.92018 -1.53303 15.3037 79 68 34
0.107115 -1.20082 13.9361 96 99 66
3.28482 -1.14257 13.6539 95 101 86
2.69562 -0.577845 13.8295 112 115 102
4.55032 -0.705253 15.7881 138 133 98
3.14243 -0.744564 16.6204 70 72 38
4.42863 -0.644893 15.333 154 157 119
2.86059 -0.527331 17.0248 160 160 121
3.57217 -0.405374 15.6815 154 163 124
3.5192 -0.374381 15.6122 94 104 62
1.58117 -0.0274487 11.9033 125 131 106
3.49198 -0.336751 15.7787 131 138 102
2.18491 -0.0915823 13.974 104 107 94
2.64083 -0.236281 16.5717 40 16 2
-0.619472 0.349941 15.5306 26 17 3
1.72328 0.393825 14.8328 152 152 148
1.97402 0.402943 14.8592 68 61 56
0.028229 0.54078 15.7041 88 94 78
4.18064 0.486498 15.7953 152 127 94
1.89833 0.557233 14.8958 90 88 80
0.0145868 0.707425 11.3117 92 95 76
1.72791 0.629456 14.8679 126 126 114
0.119326 0.754899 13.526 90 92 84
4.07038 0.768269 14.6569 186 156 136
1.92332 0.832291 15.064 11 8 0
3.95302 1.13862 14.2565 86 48 22
3.89652 1.19709 14.0937 118 80 58
4.20592 1.23501 14.2887 113 71 50
-0.404665 1.35394 13.5642 165 154 146
2.03774 1.2684 12.9772 80 62 48
4.24001 1.30067 14.4949 176 145 130
4.19749 1.37725 14.3172 98 65 49
2.23942 1.49699 12.3443 96 76 70
3.28978 2.01143 11.9905 54 26 24
3.01226 2.23858 13.2803 80 58 55
3.24951 2.47164 13.6805 60 32 28
2.89463 2.94873 13.8321 120 97 94
3.56899 3.1093 14.7136 32 9 5
1.9802 3.2484 13.6228 128 101 96
3.48304 3.60126 15.4225 68 34 28
2.80865 3.54167 14.2342 127 106 104
3.34953 3.67473 15.1601 50 20 15
2.75127 3.55138 14.2472 46 20 16
4.85355 3.27813 12.065 165 148 134
2.3272 3.82153 14.1722 124 82 78
3.24973 4.09968 15.2419 91 56 52
2.04848 3.91001 13.9351 112 67 60
1.94237 4.09302 14.2694 119 92 88
1.95786 4.52389 14.686 110 74 67
0.133086 4.95305 16.0392 112 72 58
1.90965 4.65742 14.8033 110 79 72
1.88176 5.085 15.0708 120 86 81
1.9249 5.18494 15.2147 70 30 24
2.16888 5.20633 15.298 116 80 76
2.20858 5.21215 15.3718 64 30 26
2.35076 5.29823 15.6044 101 72 67
2.35207 5.29608 15.5663 104 74 70
2.12627 5.39218 15.7247 110 82 78
1.88476 5.33035 15.1544 102 66 54
3.85856 -5.47754 15.3097 95 103 63
-1.27925 -4.97937 15.7773 126 126 81
-3.07593 -3.77575 12.6583 113 114 76
4.35492 -1.82684 8.55262 104 106 70
3.52279 -1.38202 13.5749 84 90 72
5.0187 -1.64504 15.7739 134 132 92
0.136222 -1.27475 14.1905 126 131 84
-0.236696 -0.791902 13.4877 108 108 80
0.872059 -0.582787 13.8589 73 72 20
3.94472 -0.767078 16.4746 160 166 125
0.381027 -0.329039 13.6059 118 118 92
3.24763 -0.659066 16.8973 80 73 41
0.71226 -0.107638 13.2365 90 86 64
2.59758 -0.37876 16.8944 108 98 80
2.02934 0.11097 15.1148 65 60 52
3.72437 0.0936792 15.9485 85 71 42
1.73036 0.393449 14.5702 154 154 151
1.97026 0.400019 14.8806 94 90 83
3.95486 0.417032 15.6515 59 33 14
4.1888 0.418012 15.949 65 36 7
3.96034 0.850658 14.8174 82 60 44
-1.07404 1.13079 10.1246 154 148 120
1.26315 1.20383 10.8115 100 104 67
3.51108 1.23088 13.7306 38 30 22
-0.366181 1.44519 13.7104 161 152 160
1.24033 1.33267 10.6923 86 94 54
4.20464 1.41085 14.4949 114 80 62
-1.44395 1.49338 9.98584 115 110 80
-0.518932 1.66058 13.4738 88 50 24
2.26161 1.63138 12.7993 60 40 38
-0.947735 2.10933 14.4329 77 48 26
4.18955 1.8154 12.3503 162 162 146
4.2364 1.84494 12.3576 112 112 92
2.08649 2.34561 13.0204 51 26 22
4.63339 2.38249 12.1552 134 130 113
2.90402 3.30573 14.2531 38 20 18
2.20854 1.62647 3.31818 117 94 80
2.80146 3.55345 14.2668 120 98 96
2.73814 3.58259 14.3411 54 26 21
2.2252 3.86847 14.2347 113 75 72
3.25505 4.18558 15.8762 124 90 86
2.04585 3.90369 13.9514 90 46 40
1.93689 4.01995 14.3509 116 90 86
2.71976 4.1148 14.6576 128 100 100
0.31421 4.77463 15.1152 73 30 18
2.60194 4.73289 15.1774 116 89 86
1.88433 5.02927 14.8907 112 74 68
1.93118 5.159 15.2061 70 30 26
2.14042 5.2285 15.3797 103 67 64
2.17777 5.20244 15.3466 68 32 28
1.79053 5.27899 15.3742 90 44 30
2.36933 5.35902 15.6933 98 69 66
1.87114 5.333 15.2174 96 59 46
-1.25712 -4.95435 15.6786 142 141 96
-2.46206 -2.87149 12.6966 68 64 38
-0.128363 -1.49401 14.0501 136 141 99
3.5347 -1.40048 13.5938 70 76 59
0.101147 -1.30793 14.402 141 146 97
3.26654 -1.10678 13.4908 95 100 84
-0.182466 -0.721199 13.3376 66 69 38
4.35902 -1.02909 15.5998 162 169 130
3.09298 -0.429203 17.0141 167 170 129
2.69383 -0.387739 17.1218 165 164 125
2.1828 -0.0926651 13.9656 86 90 76
2.86803 -0.291226 16.9717 102 74 52
0.906586 0.0864996 12.2574 44 36 14
2.79532 -0.210895 16.8625 58 29 18
3.86309 -0.00136504 15.8958 164 162 126
3.7053 0.112244 15.4346 78 62 30
1.75753 0.269575 14.4767 120 122 116
-0.915652 0.268152 16.207 157 150 112
-0.627456 0.33854 15.6408 34 22 8
1.96773 0.39515 14.8768 88 84 78
1.79851 0.432049 14.3852 116 118 106
3.86752 0.73625 13.3181 56 32 12
4.12745 0.728755 14.3712 82 37 11
1.93902 0.81777 14.918 12 8 2
1.05698 1.03112 11.1182 95 89 72
3.20131 1.11427 13.6274 52 46 35
3.50519 1.23403 13.5079 22 13 4
-0.465823 1.41756 13.749 40 24 12
2.11649 1.44906 12.4666 44 14 2
3.08403 1.69827 12.9384 30 21 6
2.10999 1.82196 12.5114 42 15 8
3.36791 1.81672 12.6694 146 128 122
-0.90148 2.17863 14.7264 126 90 68
1.98469 2.04618 12.9125 96 58 44
3.02706 2.24262 13.3333 58 36 33
3.58254 2.4304 14.1791 43 18 14
2.70623 2.81152 13.5041 102 72 68
-0.648839 3.71419 15.8568 139 113 91
4.57048 3.27922 12.3497 140 122 112
4.57186 3.32529 12.3523 108 82 68
3.34467 4.14964 15.9444 65 28 20
3.25717 4.16595 15.6775 122 86 82
1.94928 3.99863 14.2002 126 104 103
1.94942 4.07708 14.2466 122 102 98
3.04413 4.6756 15.7712 92 60 58
0.106542 4.95158 16.1054 112 73 58
0.121953 5.05155 16.2126 78 38 22
1.81743 5.0564 14.9167 76 31 22
2.21194 5.21328 15.383 66 29 25
1.73939 5.16538 15.1143 122 76 60
2.13362 5.24645 15.4523 115 78 75
2.38168 5.32256 15.5334 106 76 73
-0.145554 -1.50463 14.0906 126 131 91
4.93992 -1.67514 15.7174 102 98 56
-0.282996 -1.26332 13.6308 104 102 79
0.132688 -1.28363 14.2326 141 146 97
-0.238238 -0.795861 13.4472 96 98 70
3.53075 -0.402804 15.8513 140 152 109
1.56308 -0.0497262 12.577 74 78 57
3.317 -0.249358 16.2304 162 172 131
2.60324 -0.21168 16.4407 31 14 3
4.48141 0.113788 14.5437 164 124 110
-1.32645 0.408284 15.9213 47 26 4
1.78875 0.424191 14.5624 119 120 110
1.85198 0.728614 14.9589 41 38 28
4.1043 0.72096 14.2578 86 42 15
4.45747 0.77519 15.1056 127 120 95
4.23533 0.897 14.3804 128 80 64
3.94284 0.940106 14.6246 40 19 8
3.84951 1.04513 13.2693 138 96 78
-0.358099 1.4435 13.593 142 132 138
1.25 1.32883 10.656 91 100 62
4.00576 1.67496 12.369 65 66 44
-0.154077 1.91581 13.4528 107 62 38
4.21499 1.85225 12.2935 78 80 56
3.31189 2.13915 13.3597 62 31 28
3.60091 2.69135 14.5597 110 84 80
2.96615 2.94805 13.946 43 22 18
1.98979 2.93534 13.414 96 68 61
1.98196 3.26348 13.6096 116 90 84
2.71936 3.57214 14.2213 56 27 22
4.85865 3.33138 12.1405 68 40 17
3.23529 4.08939 15.3533 116 80 77
1.86868 4.62814 15.0406 66 23 13
1.97892 4.57412 14.8706 78 27 22
2.88755 4.81076 16.2449 72 36 36
1.88339 5.1123 15.1152 124 90 86
1.9489 5.13669 15.1395 70 28 24
2.33474 5.16181 15.2234 124 90 86
1.71021 5.18958 15.1736 120 74 58
2.16704 5.24415 15.5075 100 62 58
1.67209 5.24531 15.3185 148 100 84
2.39296 5.31213 15.5411 100 68 65
1.85982 5.36474 15.2879 97 60 46
-2.26333 -3.17538 12.853 126 124 78
4.63036 -0.908173 15.5401 53 36 8
4.88817 -0.91304 16.0605 155 130 98
3.10668 -0.447011 17.0242 166 170 130
2.65033 -0.287511 15.765 126 117 86
2.18169 -0.103962 13.9673 74 77 62
2.88899 -0.311533 17.1814 110 83 58
2.55976 -0.208927 16.3598 28 11 2
4.72616 -0.0586828 14.6108 162 124 113
4.57142 0.0239323 14.2922 184 146 136
1.47682 0.765441 15.023 104 106 89
1.93589 0.81743 15.1616 17 12 8
4.39987 0.764139 14.4596 126 122 96
-1.02102 0.985981 15.8524 81 78 54
4.22218 0.922169 14.4766 146 102 86
3.21292 1.11974 13.8415 53 48 35
3.4361 1.22889 13.2944 38 34 24
-0.430445 1.33975 13.5508 140 132 122
3.74618 1.24576 14.0683 104 82 72
3.83877 1.30404 14.0859 142 118 105
1.07167 1.34284 10.9049 12 12 2
-0.461414 1.4668 13.2026 80 50 28
3.89863 1.38858 13.8425 66 42 27
-0.721777 1.527 13.1526 144 104 74
3.81391 1.45606 13.2738 131 108 86
-0.555803 1.66947 13.6181 85 46 20
3.33966 1.83876 12.7607 158 138 136
-0.946516 2.04848 14.2619 96 68 46
2.05641 1.93746 12.729 174 144 141
3.05677 2.30379 13.5366 16 8 4
2.95898 2.58823 13.5189 60 38 36
-0.862595 3.14454 15.8653 146 130 108
1.98824 2.93616 13.4495 107 80 73
1.95803 3.30887 13.8349 113 87 81
2.76912 3.5717 14.1255 66 44 42
4.91404 3.23726 11.9342 82 47 23
4.84509 3.31669 11.9793 66 36 12
2.52408 4.81208 15.5497 104 72 69
0.255096 4.9869 15.6506 124 86 60
0.983132 4.86849 15.2884 121 92 90
-2.76765 -3.48015 12.4844 98 96 76
-2.29289 -3.21328 12.98 142 140 91
-0.890281 -2.05516 13.5771 75 78 48
5.11382 -1.74501 16.7294 82 77 36
4.80027 -0.509637 14.9272 164 131 110
2.52949 -0.229301 16.4925 28 12 3
-1.07246 0.260246 15.9863 56 25 4
1.94296 0.79992 15.2367 14 9 6
3.93729 0.899817 14.6729 44 26 15
3.92039 1.04787 14.2749 125 85 60
-0.693188 1.35397 13.8002 74 46 34
-0.463255 1.35653 13.717 120 110 100
3.09794 1.71274 13.125 30 24 8
3.03687 1.86259 12.792 132 100 88
1.06325 1.87456 10.4951 170 124 92
2.8066 2.65355 13.5758 40 18 14
3.41624 3.10933 14.3468 48 24 19
2.92622 3.27671 14.2168 38 18 16
1.96056 3.27645 13.6455 102 77 72
4.83728 3.32609 12.007 65 38 16
1.92918 4.03758 14.1945 104 79 74
1.89772 4.62341 14.9093 101 70 64
2.79406 4.98822 16.6386 61 26 24
2.48275 5.17563 15.6929 67 32 28
2.37479 5.30007 15.5217 104 74 68
-2.54914 -3.07894 12.416 116 110 88
4.77048 -0.376287 14.6796 132 95 74
2.6174 -0.378325 16.8934 132 122 96
2.93681 -0.27286 16.881 116 88 56
-1.19728 0.461129 13.5558 139 94 70
-1.00376 0.380321 15.2663 152 133 114
-0.792874 0.413953 14.8204 78 58 38
-1.16578 0.973966 16.4756 44 38 22
3.17578 1.68667 12.7547 82 68 56
1.10061 2.07595 10.0276 93 58 40
-0.947035 2.98869 15.5011 141 126 108
1.96849 2.61796 13.2315 48 18 11
3.06497 3.14886 14.0364 63 34 28
4.89442 3.18618 11.8168 95 60 34
1.918 4.0498 14.3113 86 56 50
2.352 4.75517 15.1202 110 72 73
1.64585 5.23617 15.2561 147 100 84
2.37257 5.28184 15.5288 92 63 56
4.32028 -1.04679 15.5862 162 173 127
4.35853 0.202476 13.7843 147 106 86
1.55069 0.608911 13.9506 62 68 53
1.71012 0.710177 14.0135 118 118 110
1.87041 0.694958 14.6951 40 38 28
-0.305129 0.918202 13.5672 18 8 4
1.06278 1.03045 11.0014 58 52 38
-0.468134 1.28355 13.7807 84 74 64
2.07784 1.92282 12.6512 176 146 143
-1.04374 2.26981 15.0517 140 122 97
0.348718 2.01908 12.6484 94 44 22
-0.755889 4.11701 16.637 100 76 57
4.77794 3.47847 13.2216 130 108 96
4.86568 3.34125 12.2392 73 48 32
0.997287 4.76002 14.9402 111 72 67
0.129451 5.19047 16.3262 142 112 92
0.752396 4.59747 13.7792 72 46 28
2.01092 5.10571 14.7785 135 92 84
0.804898 -1.58007 12.2824 124 128 83
3.26034 -1.12183 13.6668 101 104 92
3.88094 -0.709553 15.9577 154 158 117
3.96382 0.790193 14.9882 144 120 107
-0.553707 0.89425 14.5231 25 15 4
-0.708303 1.09961 10.1808 80 87 65
2.1775 1.70199 12.2766 70 39 30
2.78102 1.93122 12.8045 132 89 74
1.97696 2.04697 12.9453 73 36 20
1.56104 2.19496 10.0862 82 88 69
2.61581 4.64956 15.0946 120 90 88
2.60251 4.7542 15.193 120 94 94
2.96517 -0.845528 13.7627 74 77 64
-0.582632 0.6166 15.096 87 92 74
-0.699463 1.09936 10.1372 78 84 61
2.77622 1.92688 12.7663 150 109 93
1.86435 4.52462 14.5859 76 28 18
-1.70621 -2.76848 13.1397 108 110 64
1.71153 0.391661 14.5722 144 144 143
3.24865 2.51467 13.9565 41 14 11
1.98252 2.94622 13.4501 114 87 82
-1.98061 3.53618 8.79944 64 58 32
1.71924 0.660709 14.6215 122 122 114
2.0421 1.61326 12.3376 22 8 6
3.33827 1.80084 12.5996 161 143 140
2.64989 1.61031 8.65807 144 101 82
2.79376 3.64329 14.2514 98 78 76
3.15735 4.21969 15.3554 54 25 22
1.93477 4.08004 14.2653 120 96 94
1.86643 4.14705 14.3059 53 13 5
-1.96631 3.52016 8.77745 62 58 31
-1.9812 3.5897 8.77711 118 108 92
2.38387 5.29373 15.5575 87 52 46
-0.900864 -2.08342 13.6389 89 93 54
4.45114 -0.664693 15.4343 72 71 38
1.67406 0.437942 14.5318 154 154 155
-0.525416 1.27709 13.7444 46 30 22
-0.444106 1.3808 13.6336 68 56 46
1.83449 4.15446 14.3741 56 14 7
1.66691 0.692609 14.7681 125 125 120
2.69218 4.16921 14.7633 101 76 76
4.25964 0.212746 14.3636 144 148 108
1.66606 0.35112 14.6701 134 134 134
2.06981 1.95011 12.6625 173 144 142
-0.897461 1.0305 14.5253 51 38 26
1.93258 4.00163 14.2251 124 98 93
-2.24384 -3.15793 12.8485 94 92 56
2.68942 -0.58563 13.8345 85 88 73
-2.00875 -2.99653 13.052 122 125 76
-2.7098 -3.14654 12.4616 52 56 34
-3.42885 -4.03448 12.1811 121 124 76
-2.99504 -3.42343 12.3554 64 62 36
-2.50927 -3.36273 12.6859 107 104 58
1.86624 0.787614 15.1883 14 12 4
2.40849 -0.283166 14.5998 122 118 98
1.78547 0.291971 14.4622 92 94 88
-3.2262 -3.86864 12.3116 94 98 58
-4.02951 -4.38102 11.9834 68 66 24
0.924492 4.2745 14.6489 126 96 92
3.6294 3.34742 16.421 82 58 52
-2.88091 -3.51066 12.6016 82 82 59
2.83718 0.214887 10.8156 112 112 82
3.40515 -0.849912 7.15178 94 100 82
-0.439915 4.42404 16.234 87 45 34
6.58701 -3.64903 12.9511 92 94 64
-0.879443 -2.09118 13.6559 112 113 71
-1.94469 -2.91408 12.5985 117 116 75
0.0881505 0.536814 14.8107 68 70 56
6.74951 -3.90359 12.8512 93 96 68
6.01542 -3.4464 13.3295 86 84 42
5.981 -3.43594 13.3862 148 150 107
5.74821 -3.34711 13.4149 170 171 128
-2.38682 -2.97696 12.575 100 100 76
1.59117 1.65924 13.5389 106 75 64
2.94194 2.33978 13.414 30 8 5
-2.01711 3.61251 8.86245 107 96 78
-2.2973 -2.99956 12.6812 96 96 74
4.62522 -0.857088 15.3356 65 46 16
-2.02033 3.61704 8.86834 108 96 77
-3.41499 -4.04024 12.1663 148 150 98
6.74372 -3.9026 12.8865 93 94 68
4.91377 -1.50973 15.0817 92 83 46
4.96805 -1.56565 15.4116 117 116 76
0.208669 -1.22758 14.0219 122 126 80
-3.15057 -3.70156 12.3262 64 65 46
6.29775 -3.48616 13.1489 54 56 22
0.729136 -0.84834 13.9994 162 162 115
2.7775 3.33598 14.2662 68 34 31
-3.14434 -3.69205 12.2974 60 62 44
4.34012 -1.05655 15.7003 164 174 126
3.36022 4.87636 23.0271 104 90 88
3.25989 0.727567 8.78253 136 119 94
-0.722479 0.884421 14.1304 112 110 84
-0.62651 1.08608 14.5709 74 62 42
1.53525 -0.0816973 12.6817 74 82 51
1.59523 -0.0695238 12.3967 52 58 30
-0.644374 1.08916 14.6098 106 97 77
4.19879 1.86219 12.4884 126 126 108
-0.719988 1.22362 14.4357 86 66 49
4.84356 3.22487 11.7235 108 74 53
2.40447 -6.56177 16.5493 116 122 66
3.82733 -5.46802 15.2646 92 100 58
4.41506 -1.89661 8.79641 143 146 102
3.91312 -0.47166 4.38361 91 99 62
5.32392 -1.23101 7.48201 148 152 102
5.24248 -1.17086 7.48527 74 80 37
5.32036 -1.1384 7.40916 72 72 26
3.72859 -1.59616 13.5889 84 92 72
3.70131 -1.56714 13.592 88 94 74
1.20231 -1.4934 14.3595 132 138 90
3.54046 -1.42079 13.7472 76 84 66
-0.00339488 -1.04072 13.7497 84 88 58
-2.47811 -1.02601 14.045 110 110 59
-2.46374 -1.12124 14.752 119 118 66
0.222279 -0.868587 13.8709 84 88 56
-0.163976 -0.717186 13.2892 57 60 28
4.62539 -0.914768 15.5409 47 30 2
3.15503 -0.767251 16.9018 76 82 46
-0.499674 -0.348951 15.0328 90 94 48
2.8706 -0.538641 16.9694 149 146 108
3.07849 -0.458025 17.1998 155 155 116
-0.266738 -0.197434 14.9954 148 150 110
2.66362 -0.391545 17.3765 154 148 114
2.88292 -0.340885 17.3805 124 100 74
-1.02689 0.826942 14.869 88 86 66
4.41981 0.787755 14.7261 104 106 75
-0.879792 1.57646 13.6475 170 131 105
4.01246 1.5522 13.7097 142 114 104
2.06661 1.606 12.3213 34 9 3
2.99563 1.72925 13.0472 70 42 23
2.03761 2.32223 12.9665 86 53 48
3.28957 2.49287 13.9761 56 26 22
2.02449 2.58189 13.141 113 90 85
2.0173 2.64209 13.181 109 85 80
2.90337 2.89531 13.7879 121 99 97
1.97106 3.58451 13.8646 104 64 56
2.78515 3.68573 14.3383 110 86 83
3.32831 4.64344 16.4927 87 51 43
3.03124 4.68229 15.884 84 52 48
1.96723 4.51931 14.6358 68 23 16
1.862 4.5264 14.6094 70 25 16
2.62002 4.64056 15.0857 127 98 95
1.86585 5.10731 15.1795 121 85 76
1.74846 5.21701 15.2372 135 88 70
6.03823 -3.50354 13.472 94 96 50
4.38637 -1.90162 8.79983 104 107 64
5.27099 -1.16501 7.49422 118 126 82
5.32518 -1.15515 7.45896 58 64 14
4.44063 -2.20826 13.3134 62 70 46
-3.19062 -0.949752 14.6215 54 44 10
3.14988 -0.736726 16.5952 78 78 42
-0.223429 -0.1967 14.8369 160 164 120
2.72966 -0.408137 17.0352 156 150 114
2.869 -0.288327 16.8856 94 66 44
4.75935 -0.100934 14.5259 130 96 76
-0.922065 0.280317 16.2534 142 138 105
-0.865359 0.361868 15.7593 45 28 10
0.985974 0.449744 11.5921 30 33 8
-0.907532 1.0838 14.358 90 72 57
-0.968666 1.16213 14.6724 106 91 80
1.28649 1.20002 10.6881 87 92 54
1.63802 1.5616 12.7268 38 16 6
3.2774 1.74021 12.6567 100 82 68
-1.05608 2.64611 15.4663 139 116 94
1.49242 2.0686 9.7771 96 104 82
2.01496 2.62389 13.1782 109 90 84
1.42594 2.32933 9.60656 108 114 98
2.88692 2.94647 13.8533 110 86 84
1.97061 3.57646 13.872 96 53 46
2.33172 3.80706 14.1038 114 70 64
2.24191 3.81089 13.9122 110 66 61
2.69858 4.20228 14.7776 114 85 84
1.92492 4.52129 14.6023 111 74 64
2.90123 4.99517 15.9181 82 51 48
5.98651 -3.33863 12.92 116 117 71
4.43499 -1.90885 8.80175 160 166 116
5.32041 -1.14437 7.4153 56 58 13
1.20208 -1.49175 14.3331 116 124 75
-0.463614 -0.965451 13.2454 74 72 46
-3.1531 -0.939418 14.5666 64 54 16
4.37413 -1.08278 15.9298 156 168 124
1.62354 -0.441368 13.1438 80 80 36
4.51559 -0.667983 15.3036 66 55 22
3.23745 -0.64838 16.8313 76 64 36
-0.25492 -0.200496 14.9705 160 164 120
3.47295 -0.351045 15.8007 153 165 123
-1.40826 -0.115921 15.5511 120 94 56
-1.37912 -0.0636381 15.482 158 144 98
4.11994 0.731983 14.5183 86 42 5
2.11156 1.57094 12.3348 97 63 51
1.55284 1.52652 10.3083 116 123 99
-0.959874 1.9277 14.4927 76 40 15
3.03983 1.88104 13.0135 105 70 56
1.76196 2.05609 12.5669 85 38 16
2.01355 2.58744 13.1539 107 84 78
2.3246 3.80973 14.1215 108 65 59
2.22492 3.8341 14.0726 104 60 56
2.70186 4.18227 14.6938 114 85 84
5.25123 -1.18285 7.53317 72 78 36
4.1921 -1.97112 13.2412 66 72 47
-1.15963 -1.76178 12.7479 106 101 74
3.7173 -1.58232 13.5145 78 84 63
3.5291 -1.38184 13.5339 59 68 49
2.70886 -0.596879 13.8117 90 95 81
1.57708 -0.458312 13.424 71 71 28
4.50876 -0.670477 15.3447 86 78 43
4.56562 -0.600007 15.1024 115 106 69
4.78806 -0.391949 14.445 127 88 64
3.08839 -0.460558 16.9896 154 154 115
-1.29911 -0.00334335 13.6201 94 67 42
2.89172 -0.307878 16.9589 108 84 60
-1.32281 0.0824109 16.2104 152 139 102
-0.989484 0.249886 15.6601 55 22 5
-0.545615 0.282923 15.1858 133 132 98
2.10688 1.62702 12.2573 102 70 60
-0.904732 1.9113 14.2525 82 49 24
3.01494 1.69888 12.9843 95 74 62
-0.999394 2.07306 14.5214 72 43 22
2.00233 2.60399 13.189 106 84 78
2.6983 2.82262 13.5284 89 58 54
2.2287 3.8186 14.017 104 60 56
1.94212 4.00189 14.1789 114 88 86
5.25714 -1.19325 7.58623 78 86 43
3.70395 -1.57138 13.5424 60 66 46
3.49722 -1.3827 13.635 48 56 36
4.60355 -0.879735 15.5243 45 27 2
2.69508 -0.596407 13.7593 50 54 38
4.53878 -0.605484 15.1499 157 162 121
-0.130616 -0.308483 15.7312 156 162 116
3.34173 -0.306986 16.313 152 166 124
2.87416 -0.313909 17.1133 95 69 45
1.00974 0.396994 11.5314 84 85 62
-0.630984 0.412771 13.9426 86 64 46
0.946753 0.446007 11.5957 32 32 16
-0.886114 1.1705 14.404 108 94 81
1.53619 1.51035 10.3624 106 115 89
-0.985087 1.92682 14.5529 89 56 30
3.04788 1.8606 12.7978 132 98 84
1.91431 2.27112 7.96031 42 16 8
2.7001 4.14549 14.6272 78 48 45
3.28432 -0.0981137 3.91431 134 136 104
4.80318 -0.945205 15.5793 119 108 72
4.58974 -0.903662 15.4898 50 34 8
3.18556 -0.62019 16.3814 62 37 21
3.31835 -0.300261 16.1065 148 160 117
1.76714 2.07427 12.5695 85 38 16
3.01606 2.60545 13.6788 33 14 10
2.77884 3.62537 14.2769 78 56 54
3.58653 4.23083 16.5366 72 40 30
1.81215 4.54462 14.5352 64 19 11
4.33204 -1.05982 15.6997 152 166 122
-1.41396 -0.0995892 15.4174 152 142 96
1.10524 1.39975 10.6087 114 94 68
1.90494 4.55078 14.6083 100 67 58
6.25699 -3.45112 12.9544 61 60 25
4.47384 -0.565886 15.1697 157 166 123
3.94997 0.556013 15.4892 46 26 16
1.177 1.23022 10.3297 12 5 2
-0.611043 1.45088 13.6654 73 44 26
-0.244721 1.52707 13.3068 44 31 20
2.00019 2.58954 13.1831 80 53 48
-2.50603 -3.36725 12.6878 101 100 59
-0.625958 -1.87964 13.8033 95 96 60
3.90696 -0.66955 15.5783 118 128 90
2.73862 -0.389583 16.8774 156 142 110
1.01463 0.379168 11.5923 69 64 35
-0.669845 0.851629 13.7971 69 64 48
-0.48044 1.49716 13.4335 66 36 19
1.01438 4.75455 14.9551 126 90 83
1.83523 5.11683 15.0586 69 26 14
1.79877 5.25797 15.2654 87 42 30
2.38415 5.35428 15.4879 96 63 58
1.82486 -2.24351 12.7246 103 112 60
-1.12067 -2.31021 13.4482 114 116 72
-0.615697 -1.88222 13.7888 100 102 64
3.70382 -1.56442 13.5392 71 77 58
3.89879 1.30793 14.1702 70 37 20
-2.76612 -3.47154 12.498 50 51 28
-1.10778 -2.29538 13.3956 114 116 72
-1.37252 0.00274664 13.7873 90 61 36
4.23272 0.897611 14.2491 144 98 80
1.8043 5.11919 15.0806 76 30 18
-3.94379 -4.36866 11.8904 88 79 37
0.211565 -0.879395 13.804 92 92 64
4.92479 3.24662 11.8965 80 48 28
-2.51608 -3.36738 12.6877 122 122 76
4.65882 -2.40469 13.236 62 68 43
-0.894305 1.55216 13.6575 150 108 84
2.15809 1.76936 12.2465 42 13 6
1.81785 4.68695 14.6983 52 17 12
6.28409 -3.47227 13.1082 50 50 20
4.52222 -0.589156 15.1832 142 141 104
3.21906 1.74182 12.6952 98 80 66
2.71214 4.11977 14.6078 116 80 80
2.20668 5.20669 15.2664 105 68 62
-3.18969 -3.84452 12.2423 86 94 54
4.71863 -1.02829 15.4373 146 148 106
2.55039 -0.390681 14.4974 158 156 122
-1.45326 -0.0419681 15.6109 154 150 100
4.6257 3.38662 12.6885 118 100 90
2.0552 5.02383 14.8937 73 26 18
2.38388 5.26629 15.3975 78 45 38
-2.92291 -3.67264 12.3857 124 122 80
-1.13618 1.07876 13.2406 158 142 118
-3.03568 -3.5439 12.1658 80 82 62
-1.69513 -2.76309 13.1266 100 100 56
6.38549 -3.73364 13.4858 106 109 60
-0.774828 1.67415 13.3515 103 54 32
-2.96785 -3.69169 12.387 118 118 82
-2.80328 -3.44495 12.3954 100 98 80
-1.25967 -0.0392539 13.7106 120 104 68
-2.51663 -3.34928 12.6516 90 89 54
-2.71688 -3.16099 12.4751 68 68 42
4.52868 -2.64778 13.8301 72 76 50
-1.16967 -0.0409496 13.5467 128 116 80
-1.06681 -0.053103 15.4179 120 115 82
-3.41888 -4.03269 12.1836 86 88 44
2.7379 -0.334971 14.6261 127 106 70
-2.14347 -2.98848 12.766 88 91 64
3.78591 1.38499 15.3507 93 65 46
2.92469 3.27415 14.0227 32 14 14
-2.71775 -3.14509 12.4594 45 50 24
-2.96678 -3.4117 12.3647 46 48 22
-2.71763 -3.16435 12.3566 56 56 30
3.34757 3.63633 14.7617 55 22 16
2.60358 -0.474244 14.4894 126 126 96
2.89508 -0.472131 14.5506 134 134 95
2.0947 0.513103 10.7796 102 104 81
2.72098 4.22779 18.4408 82 52 49
1.58883 1.83077 10.6666 154 113 90
1.94862 3.98264 14.1675 122 96 95
1.02557 4.84584 15.043 113 90 90
1.01914 1.89728 12.0133 125 106 74
1.97817 3.55668 13.8061 96 56 47
3.38998 4.05032 15.6286 66 28 19
3.96605 1.36968 15.8545 140 112 100
1.06095 4.76168 14.809 101 73 70
3.13506 -0.426297 15.4354 150 164 120
2.99969 1.68608 12.9521 48 30 17
4.80371 -2.93338 14.1581 93 95 70
1.65542 1.12786 5.33014 97 80 56
4.17231 1.76276 14.8223 149 142 127
-1.10227 2.19137 15.1277 136 116 90
4.15651 1.74734 14.6565 138 128 114
-1.02957 2.08154 14.632 89 66 42
3.94648 0.769139 14.5509 74 51 36
-0.596979 1.19443 11.9268 141 110 90
0.629 1.28453 9.78681 86 76 66
3.64747 3.92146 16.5609 106 83 72
1.29994 2.66806 8.07544 106 86 64
-1.31057 -0.0831716 15.1861 133 112 71
3.74538 3.31462 15.8231 76 46 36
3.17476 4.21092 15.6008 65 32 28
-0.128244 1.33423 12.8458 56 46 30
-0.385494 1.43795 13.6922 88 85 90
3.35963 1.84081 13.088 144 121 118
3.69787 2.10377 14.0004 50 35 24
1.99637 2.61836 13.2286 80 54 52
-0.981321 0.307997 14.1538 146 136 90
3.81875 0.0462908 15.8096 114 87 60
-3.87101 0.174864 24.2219 136 130 86
-0.192748 1.24307 12.929 84 78 62
3.9015 1.31449 13.5789 74 44 28
3.84412 1.25471 14.668 97 70 54
3.87967 1.50882 13.9139 144 118 104
4.76687 3.2 12.1075 158 148 138
3.98776 2.40223 14.9827 141 130 116
-2.9708 -3.69632 12.4262 110 108 64
-1.04563 -4.71317 15.622 98 102 60
0.061052 -2.59792 10.7306 77 80 30
-0.43279 -3.58893 14.8523 92 102 67
-1.99992 -2.73652 12.7853 70 72 51
-1.69795 -2.75988 13.1289 83 85 44
0.461319 -2.14451 14.3883 108 116 82
3.49519 -1.3529 13.6013 86 92 76
4.63085 -0.845423 15.2059 56 38 7
1.76158 -0.399068 12.6793 98 97 64
-1.35066 -0.00862431 13.7512 78 56 30
-1.27752 0.0906472 16.005 140 126 89
4.64091 0.161224 14.3477 129 92 76
1.55674 0.527145 11.4417 116 126 98
0.0014062 0.702144 11.3557 74 75 52
1.01948 0.691428 11.4254 91 91 65
-1.21237 0.8868 15.6135 108 104 81
1.54081 0.797572 11.2217 112 122 93
1.54633 0.82919 11.1619 116 126 96
1.49967 1.14681 10.9729 107 119 92
1.5684 1.62892 13.0348 94 67 59
1.51787 1.69284 11.0284 131 97 70
1.50812 2.00632 10.429 63 66 46
1.15697 2.37848 12.9066 160 114 103
2.71463 2.80822 13.4781 116 83 77
3.39138 3.60617 15.1634 124 98 96
2.3304 3.8117 14.1066 118 71 65
4.73322 3.24368 11.8164 157 140 131
1.96387 4.04342 14.3191 63 26 22
4.9358 3.23715 11.9071 122 99 79
3.19123 4.15521 15.518 58 27 25
3.31924 4.1376 15.4423 46 16 10
0.911287 4.32483 14.6878 114 88 84
1.89202 4.16169 14.3237 54 14 6
3.29446 4.72875 16.7231 90 53 46
3.08495 4.66535 15.9529 126 96 94
1.92354 4.52236 14.5963 125 95 92
1.04645 4.81181 15.0737 56 16 12
1.91009 5.2399 15.2241 80 36 24
-0.991099 -4.62645 15.5816 121 126 82
-2.78978 -3.55766 12.5862 116 115 70
4.91431 -1.60602 15.32 90 88 44
4.8563 -0.917223 15.4862 134 130 94
0.778486 -0.49279 13.3773 53 54 16
0.829287 -0.275387 12.7397 100 103 63
1.44287 0.519859 11.7547 98 108 78
1.48906 0.798202 11.3545 96 106 76
4.1955 1.59202 14.8799 88 62 51
2.13114 1.81975 12.6741 44 20 13
1.46792 1.77146 10.3724 94 102 80
1.51501 1.86907 10.8055 156 116 91
2.11843 2.00976 12.7715 104 69 56
1.50556 2.0043 10.4282 54 58 39
1.15499 2.37702 12.9064 148 102 90
2.02711 2.31665 12.9769 75 38 32
2.00921 2.58553 13.1805 100 74 70
3.51611 3.06147 14.8942 97 66 64
3.51065 3.47872 15.0444 88 56 53
3.38944 3.58274 15.1659 110 85 84
3.43078 4.01388 15.6004 56 20 11
1.99739 4.03781 14.1727 63 26 22
3.26918 4.10775 15.2684 110 84 82
0.920193 4.22672 14.5628 124 86 80
4.90529 3.27897 11.8443 94 60 39
4.86472 3.29132 11.8084 91 62 44
1.8898 4.14032 14.2769 49 11 2
1.82084 4.73815 14.8719 54 16 10
2.32336 5.31408 15.6232 97 64 59
2.21335 5.35611 15.4231 133 96 88
-2.40136 -5.85808 16.5871 88 92 34
-2.61528 -3.13127 12.4634 82 82 60
0.311358 -2.36802 14.4129 86 96 56
3.71036 -1.56974 13.5465 88 94 76
3.50492 -1.36176 13.6164 76 81 64
-0.210202 -1.23824 13.5411 90 90 65
0.80671 -0.613893 14.0378 56 56 10
-1.41329 0.406409 15.5188 153 152 101
-1.19499 0.550902 13.2829 146 100 76
1.52868 0.529818 11.4952 106 117 86
0.990924 0.692555 11.5284 89 90 66
-0.809677 1.69305 13.4584 104 56 27
1.53318 1.62569 13.1099 94 65 55
4.14879 1.68148 15.6662 106 86 74
1.15652 2.37486 12.9079 134 88 76
2.03069 2.31535 12.9702 88 51 45
3.39048 3.59002 15.1328 102 76 76
1.95909 3.57322 13.8902 91 45 36
3.42375 3.99829 15.452 49 18 8
4.56626 3.29055 12.455 100 82 72
3.25371 4.10821 15.4136 110 80 78
3.19658 4.11635 15.2822 85 52 49
4.89626 3.27605 11.8766 90 53 30
0.909367 4.30692 14.6719 120 93 88
3.21922 4.16847 15.2338 54 22 18
-2.16181 3.64238 9.03965 101 90 70
1.84264 4.54104 14.6357 92 38 26
1.96696 4.50464 14.5084 102 66 62
1.56538 5.34977 15.3299 103 56 39
2.25187 5.3446 15.379 124 88 81
-2.29113 -5.78668 16.3607 96 99 42
-1.78088 -2.79796 13.2568 104 104 57
-3.13577 -0.943909 14.5398 49 40 6
0.921802 -0.594007 13.6271 50 54 10
1.65021 -0.402915 12.7951 64 66 20
-1.35388 0.398161 15.3727 152 149 97
-0.925012 0.508537 13.2098 135 130 83
-1.17074 0.525461 13.1937 145 98 72
1.56744 1.633 12.7745 62 38 30
1.4524 1.55069 10.662 111 117 90
1.57158 1.68575 10.8888 114 84 58
2.90925 2.31791 13.3972 24 8 4
4.64402 3.37368 12.5238 154 138 128
1.78425 4.61146 14.8546 79 28 18
2.83363 4.98357 15.7022 114 84 82
-2.40694 -5.87354 16.6388 91 94 37
-2.22547 -3.14478 12.8089 76 74 38
-2.23302 -3.11584 12.9485 86 89 52
-1.99828 -2.97419 13.0189 68 71 30
3.9178 -1.78275 13.5132 56 64 42
1.05734 0.32571 14.227 36 15 4
1.72042 0.268884 14.5469 100 102 100
-1.02873 1.21486 13.2862 161 140 116
1.60659 1.52851 12.9653 30 13 8
-0.653186 2.02496 13.7695 102 68 48
1.92886 1.84926 12.9639 44 16 10
1.1296 2.37469 12.9287 122 74 62
2.00234 2.60978 13.1553 96 72 66
0.876947 3.71227 14.0691 100 71 66
1.93666 4.05019 14.2272 112 87 83
3.10608 4.64174 15.7562 114 84 83
1.84709 4.52799 14.5202 69 22 14
3.81989 -5.47504 15.3651 80 92 49
-2.78294 -3.18515 12.5198 42 46 24
-1.13941 -2.31196 13.443 113 116 72
-0.375194 -1.68015 13.96 113 117 74
3.2443 -1.13101 13.6738 50 54 42
0.789404 -0.637706 13.9512 49 54 15
-1.0168 0.311437 15.0851 72 44 24
-1.24588 0.402024 15.1105 151 150 96
-0.975327 0.949225 13.648 124 106 70
1.43796 1.62077 12.9021 23 10 10
1.98331 1.60053 12.4694 22 8 6
1.31324 1.79704 11.647 153 112 84
2.02318 1.81433 13.1927 38 12 8
1.14314 2.38008 12.8932 120 72 62
2.58497 4.68255 15.1545 86 51 50
2.39448 5.2908 15.5125 85 47 40
4.88083 -1.72405 16.5005 94 88 46
-0.915587 0.939957 13.4996 114 102 64
1.95934 1.59087 12.4 18 6 4
-1.7753 -0.572876 14.3897 144 140 85
-1.26006 0.323725 15.0624 149 152 95
-1.05917 0.916252 13.8094 93 82 56
1.09388 2.22536 15.6453 164 122 104
3.13019 2.20748 13.319 40 17 14
-2.47828 -5.90263 16.7302 98 101 46
-1.26775 -4.95127 15.7686 120 122 77
3.23403 -1.14326 13.807 87 90 78
0.252853 1.33791 11.6873 150 130 116
1.81294 3.1747 13.3062 106 58 48
-1.05736 -4.71205 15.6334 101 108 65
-2.63333 -3.10075 12.3995 64 62 34
-1.11582 0.301587 13.3802 128 114 74
4.3418 1.44343 15.3291 102 85 72
1.94102 4.63008 14.5181 72 37 31
0.565594 1.27153 11.2784 131 106 84
2.88126 2.93801 13.8454 110 87 85
1.81416 3.16646 13.2937 90 45 36
1.01143 4.8199 15.0516 115 86 80
1.49945 2.99577 13.3923 36 6 4
1.00981 4.81525 15.0182 93 62 56
-2.69162 -3.39251 12.5614 46 50 28
-0.970136 0.481183 13.3441 149 144 94
1.82024 4.68353 14.6861 50 18 12
-1.15611 0.28972 13.4354 108 92 54
0.843334 4.33049 14.8012 108 74 70
1.91356 4.57074 14.6019 96 60 54
1.69826 -2.2969 13.0483 120 127 76
4.45713 -1.00463 15.3746 32 31 6
-1.61379 0.539065 13.7934 146 124 79
-1.03904 1.20869 13.251 162 142 118
-3.12456 -3.77921 12.2142 55 57 32
-3.07327 -3.56363 12.2215 95 92 72
-1.04521 -1.88484 13.4575 78 81 58
-2.97007 -3.6948 12.402 118 117 78
-3.16246 -3.59612 12.2109 42 45 21
-1.21775 1.87113 15.258 84 54 28
0.673976 -0.640709 16.234 110 111 71
2.89597 4.93145 15.8708 116 86 82
-1.11565 0.977356 13.1952 132 114 90
-1.27634 0.526147 13.3496 146 99 69
-3.00234 -3.42168 12.3421 50 46 24
-2.25718 -3.17644 12.8755 84 82 39
-2.09811 2.58111 20.5192 104 80 54
2.90525 4.98382 15.9169 99 72 68
-2.48392 -3.33405 12.7071 144 144 100
-2.2479 -3.16081 12.7952 102 102 60
3.17443 4.78062 16.4345 78 54 52
3.27456 4.63919 16.4694 90 59 54
-0.86504 0.928558 13.3849 133 118 84
4.71677 -1.04757 15.4838 128 128 86
-0.401136 0.228216 13.4132 105 88 48
0.912271 3.70197 14.142 52 18 14
1.86465 4.71269 14.7064 59 19 10
-0.339172 -0.443567 13.5303 122 124 76
2.00911 5.02632 14.7659 98 60 52
1.87393 4.62102 14.7426 90 56 49
1.79507 4.67097 14.6283 50 14 6
0.70201 -0.673722 14.1929 50 56 17
1.7538 4.65152 14.5759 49 12 5
4.91819 -1.60924 15.3175 94 92 46
-1.33933 -0.817413 14.7378 128 131 80
-0.147046 -0.627587 13.9369 87 88 51
0.924955 -0.0988989 12.2379 159 158 122
4.51038 0.0486361 14.297 128 85 68
1.22297 1.172 10.9552 92 98 60
4.38461 1.43136 3.36777 81 55 39
2.70308 4.22427 14.7634 132 105 104
6.37191 -3.61466 13.0755 157 160 110
-1.31946 -0.0138829 13.6819 78 55 31
1.58244 1.56554 13.017 28 13 6
4.55455 3.36424 12.4802 82 61 48
4.80478 3.26773 12.1015 160 142 134
-1.31859 -0.805663 14.6892 132 134 84
-1.13492 -0.693395 14.9823 135 138 88
0.928794 -0.398873 12.7712 68 72 34
0.53901 -0.00469722 12.9491 118 112 72
4.4236 1.15171 3.03713 42 24 10
3.60435 2.69339 14.6249 101 78 78
2.21884 3.83612 14.1077 110 63 56
2.68223 4.15231 14.8462 114 86 86
3.28883 4.57429 16.009 102 72 68
6.35119 -3.40794 13.0311 52 56 34
-1.60212 -0.240078 14.6733 154 140 100
0.351457 -0.0977451 13.0566 132 138 88
1.23043 1.19647 10.8932 94 100 62
1.95502 1.85737 12.8559 48 16 6
2.89639 3.31777 14.2123 32 12 10
6.01517 -3.47885 13.3836 134 136 89
0.969802 0.39088 11.6764 94 98 73
1.89184 1.64159 12.9672 66 42 37
2.10383 1.82238 12.8603 40 14 8
3.18766 3.18613 14.6284 38 14 7
0.591362 -1.00288 14.1073 140 140 96
-0.0662389 0.222854 12.6343 158 144 99
1.52662 1.15081 10.8453 90 98 70
6.40851 -3.68273 13.142 156 160 109
0.887967 3.1647 13.7215 18 6 3
0.966144 4.8228 15.0995 96 65 58
0.204923 -1.20282 15.2582 160 160 116
0.614097 -0.759048 14.3176 42 51 13
0.904778 1.7799 10.6742 146 106 75
0.844152 4.24904 14.6993 94 43 31
1.50746 -1.80971 16.1471 138 143 104
1.33082 -1.32572 13.9154 164 166 120
2.4343 -3.92511 15.067 136 144 97
4.34677 -1.87756 8.72652 148 153 104
2.28141 -2.3432 14.9817 136 140 102
-0.823581 2.86308 15.1224 114 90 66
-0.631401 3.03117 15.072 125 106 80
2.12689 -2.72332 16.4092 142 147 102
-2.17698 0.322822 19.0874 122 111 90
-0.960456 2.1138 14.633 136 111 88
3.60606 4.28689 16.8559 76 46 35
4.36501 -1.94147 8.91 117 121 70
2.72887 -1.37829 14.0886 126 133 98
-0.817436 1.84334 13.7643 152 134 107
-0.821746 2.9745 15.1979 82 60 43
3.3159 4.67257 16.4922 88 54 46
2.38819 -4.07426 15.4349 110 118 74
2.0143 -2.91974 17.0824 128 134 91
2.18253 -2.50233 15.7183 132 134 96
2.72046 -1.24497 13.7462 102 109 81
2.80531 5.02725 15.9559 89 58 56
2.39485 -4.0749 15.4373 128 135 90
2.00845 -3.16622 16.3229 78 87 48
2.31717 -2.32045 14.6727 121 128 86
2.80754 -1.13716 13.0207 112 118 90
1.81607 -3.59995 17.8577 85 96 56
2.22943 -2.52424 15.4178 108 115 74
1.55499 -1.21931 15.2929 156 163 116
0.894124 4.27554 14.7053 106 69 64
2.45015 -6.59271 16.5658 85 86 34
-4.02299 -4.45966 12.0292 76 72 31
3.86751 -5.4251 15.2328 84 96 47
6.41722 -3.63873 13.0333 126 129 87
6.20106 -3.40959 13.0337 136 134 100
6.06353 -3.47081 13.3905 132 132 89
6.01184 -3.49578 13.4906 77 78 36
5.65518 -3.32054 13.4878 146 146 104
-0.473335 -3.0591 14.6747 110 114 70
0.24794 -3.12964 14.8966 108 116 67
0.330678 -2.35377 14.379 94 107 66
3.32724 -1.34387 10.3505 96 94 88
3.92087 -1.79035 13.5544 76 82 62
0.686624 -0.599611 13.8418 47 52 14
-1.42251 0.970738 13.8047 94 66 48
-0.69572 1.32269 13.1201 132 100 78
1.65057 1.07019 11.8562 68 68 55
1.56122 1.12839 10.8405 92 104 76
3.44483 1.20989 13.2543 56 48 36
1.52807 1.76603 10.2409 108 114 92
1.58181 2.09241 12.9271 91 44 18
0.777901 2.4279 13.0353 121 88 78
0.729852 2.46051 13.2301 45 11 4
0.710959 2.46269 13.1575 114 84 77
1.06369 2.73408 13.1755 114 66 60
0.800029 2.81951 13.4723 30 4 0
0.366629 2.90712 13.6153 132 92 74
0.871482 3.79263 14.2032 116 90 88
3.41252 3.55524 15.1295 120 95 96
3.1678 4.1461 15.6186 55 25 24
3.25993 4.14421 15.4292 114 88 86
2.73514 4.09889 14.6301 115 82 80
3.22882 4.6642 16.5275 117 84 78
3.29155 4.71111 16.7441 96 66 57
3.14686 4.63108 15.9122 80 50 47
3.15075 4.77956 16.4925 96 73 69
3.02201 4.69385 16.034 60 27 27
1.90399 4.64924 14.7388 113 82 79
2.92643 4.98164 15.7196 72 44 39
1.9591 5.22917 15.2741 118 71 60
2.19896 5.23377 15.4463 88 46 40
1.55991 5.34699 15.3197 90 43 24
2.23994 5.33498 15.3562 122 84 76
3.85307 -5.43833 15.283 73 88 40
-3.03579 -3.48672 12.1782 58 58 30
6.09086 -3.44523 13.2721 157 158 112
5.96758 -3.45981 13.4598 154 156 110
5.36979 -3.07621 13.2103 126 128 81
4.15741 -1.84115 13.5305 55 64 46
-0.0116343 -1.04891 13.7113 68 73 44
-1.74888 -0.948071 14.7616 102 101 47
-1.27632 0.908221 14.3801 122 106 68
1.97662 1.26574 13.1858 88 73 64
2.01226 1.32662 13.2114 98 76 65
3.6484 1.3472 12.9671 62 52 37
2.07401 1.61067 12.3013 26 8 2
3.21355 1.67692 12.7195 80 62 44
1.5279 1.76764 10.233 94 99 76
2.0866 1.82182 12.8243 42 16 6
0.77378 2.45006 13.1577 45 11 4
1.41773 2.22599 10.104 92 98 80
1.05014 2.73908 13.2079 104 56 49
1.31735 2.63662 9.50291 96 102 78
2.89116 3.25333 14.1199 66 35 31
2.78909 3.31973 14.0524 49 16 10
0.911667 3.71364 14.1707 56 24 20
1.2173 2.94044 9.28513 78 83 59
1.01927 4.75512 14.9444 125 82 76
3.17893 4.76428 16.3728 106 82 78
2.63 4.63342 15.0656 122 91 90
1.7589 5.15603 15.2274 86 36 24
1.94662 5.2312 15.323 94 46 36
6.33833 -3.46107 13.2487 45 53 26
1.80461 -2.27339 12.8144 114 119 70
0.459926 -2.15321 14.3443 103 110 76
-0.268793 -1.49719 13.8265 80 86 57
0.905093 -0.412429 12.8566 77 79 44
1.52471 0.437881 11.8409 26 32 14
1.20223 0.652487 13.256 60 66 54
-0.938666 1.24671 13.5264 90 56 34
2.09681 1.30933 12.9716 95 74 63
3.42252 1.22883 13.3048 62 56 40
1.4621 2.07859 9.97585 100 103 81
0.728993 2.44605 13.1137 118 85 76
0.734919 2.46694 13.2582 50 14 7
1.07791 2.72295 13.1279 98 51 42
0.814749 2.8128 13.4409 40 12 6
0.655419 2.85892 13.4842 20 5 0
2.90564 3.29395 14.0962 32 15 14
0.875548 3.68495 14.0819 130 100 89
0.919421 3.72575 14.1839 50 14 10
0.938796 4.21517 14.5157 116 71 62
3.11139 4.20445 15.8256 92 62 60
2.72074 4.10888 14.653 116 84 82
2.68367 4.20482 14.7628 98 72 68
1.03205 4.83707 15.019 113 88 86
1.87386 5.2437 15.2878 92 51 44
-0.854532 -4.08423 15.303 86 94 60
1.77724 -2.27733 12.8797 104 110 60
3.41777 1.23125 13.3106 49 44 28
1.88357 1.64383 12.6788 26 10 6
2.1507 1.8166 12.6733 42 15 8
4.12288 1.65814 12.3405 148 121 113
0.992939 2.11368 12.3734 96 61 52
1.49397 2.06617 9.92311 100 103 81
0.688729 2.45447 13.1801 112 79 70
1.16023 2.37802 12.8858 142 93 80
2.77836 3.31985 14.0778 53 18 12
3.28597 4.14792 15.5807 49 22 20
3.07685 4.85796 16.6517 82 58 54
1.94037 5.20576 15.1622 98 56 47
-0.693563 -1.89739 13.8907 91 96 58
-0.406758 -1.69091 13.9962 130 133 87
-1.45789 -0.294327 14.1337 75 56 36
1.44597 0.41779 12.0264 30 36 18
1.51112 1.14637 10.904 90 99 70
2.1104 1.64317 12.2879 100 65 56
1.45373 2.08358 9.97318 93 95 73
1.40491 2.35542 9.70176 102 102 82
0.742707 2.87241 13.6706 23 8 4
1.99603 2.92041 13.3947 102 75 69
2.0045 3.25364 13.5686 112 81 74
2.64694 4.2008 14.8693 98 71 67
2.87557 5.00992 15.985 105 75 70
-2.97265 -0.898482 14.6478 100 98 50
1.44354 0.428515 14.3121 120 116 104
1.49671 3.00267 13.393 44 8 2
-1.99136 3.56093 8.84939 85 77 55
0.895532 4.29979 14.6528 108 74 66
3.29343 4.04515 15.2611 96 66 65
3.29483 4.65408 16.6582 98 61 56
2.88931 5.00211 15.9244 81 52 48
2.78992 5.01405 15.7397 122 98 96
2.53393 5.17415 15.717 77 40 34
-1.33694 -0.298993 13.9341 73 54 36
-1.27079 1.07234 13.3026 106 101 60
0.863246 3.1938 13.7239 24 4 2
0.764006 3.80667 14.3701 89 60 57
0.866651 4.28078 14.6668 105 62 54
1.70255 -2.26483 13.0079 102 108 59
1.47519 0.426048 14.344 124 120 112
1.94023 1.63802 12.7809 83 52 44
3.37803 4.56174 16.3371 86 50 44
-0.132093 -3.51278 15.4503 107 116 68
2.01834 1.25453 13.0977 75 60 52
3.42275 1.76829 12.4207 92 77 64
0.756899 3.11816 13.6968 116 86 76
2.03316 5.31008 15.5614 141 108 102
0.81712 3.15271 13.7671 37 10 5
3.2265 4.66275 16.5643 88 50 44
6.41533 -3.65174 13.0241 156 160 116
1.82807 4.69144 14.7085 50 16 12
1.92571 5.19778 15.2086 79 36 28
1.99999 2.03907 12.7457 64 24 9
0.793785 2.85922 13.5244 26 8 3
-0.196536 0.900247 12.0801 132 124 83
0.768701 3.09466 13.6387 110 78 68
1.83641 4.15285 14.2664 65 17 10
-3.22433 -0.931108 14.6047 86 78 34
0.980753 4.83563 15.048 64 30 22
1.76677 2.0573 12.9535 59 16 6
1.1544 2.06491 10.0337 108 102 76
1.78729 5.28336 15.4181 84 40 28
3.45114 3.99871 15.3914 57 26 21
1.9093 4.6031 14.6535 100 62 56
1.09781 1.46216 12.6077 15 8 6
-0.560618 0.905429 14.288 108 100 83
-0.810653 0.895923 14.1591 135 117 100
-0.716871 1.28043 13.1502 87 70 45
-1.32039 0.92128 15.1237 88 73 56
2.11033 1.41279 12.8388 32 16 8
1.67861 0.389985 14.5762 120 120 120
-0.164066 0.882778 11.1498 62 68 52
3.10639 4.6311 15.854 128 98 96
-5.45224 1.38216 24.0603 94 81 74
0.381246 2.90148 13.5949 114 74 55
0.77088 3.10281 13.6604 112 80 70
-15.8977 8.07311 24.4398 74 68 44
0.880217 3.15063 13.6707 31 9 5
1.03565 4.82404 14.987 104 80 78
0.857345 -0.203764 12.441 153 150 102
2.18502 1.48752 12.5497 34 16 10
0.603882 -0.376281 13.0189 52 54 24
3.05588 4.7259 15.958 104 79 79
1.95977 1.5285 12.2727 43 26 22
3.22719 4.10554 11.3332 84 46 40
0.93179 -0.00903105 12.1328 50 53 16
0.19678 0.656178 11.7228 79 81 63
1.53914 0.927687 10.113 40 38 22
0.699649 2.19889 12.9138 105 80 74
2.6698 4.234 14.8671 128 101 99
-0.432475 -1.69757 14.0587 107 110 64
0.1641 -1.25482 14.1651 86 92 44
0.823371 -0.956556 13.4066 156 154 108
0.609872 -0.158926 12.5767 118 121 75
0.90232 -0.00831893 12.1517 42 44 12
1.07909 1.59273 10.5767 146 108 76
1.98525 2.94186 13.4424 118 94 90
4.03605 -1.77716 13.6494 57 66 48
-0.0764916 -1.4728 13.9788 110 116 72
0.667153 -1.00556 13.7249 157 154 108
0.926064 -0.184139 12.329 154 152 107
0.948231 -0.0703214 12.1195 152 150 102
0.968216 0.0136675 12.0235 40 40 12
1.07899 1.71825 10.4524 150 132 104
1.95017 2.9513 13.5331 105 79 76
3.25723 3.14449 14.3765 46 17 13
0.844683 -0.0850207 12.3172 155 155 108
0.778547 -0.00519666 12.3668 40 42 14
2.80521 3.28601 14.1871 110 80 76
2.07304 1.29344 12.8929 83 68 58
1.84866 1.61399 12.6676 16 6 1
6.27886 -3.62612 13.3802 102 105 62
0.702795 -0.66951 14.1604 44 52 13
1.8294 4.58076 14.7494 80 32 22
1.3972 -0.120357 13.5316 34 38 18
0.708234 3.78066 14.4724 99 65 57
2.3829 -6.55767 16.6136 110 114 62
2.72816 -3.90661 14.4884 134 141 98
2.06097 -4.31683 15.9861 112 118 70
4.45535 -1.67301 8.62377 103 104 66
0.504414 -2.14371 14.2185 108 114 80
1.06638 -1.62196 14.6434 150 152 104
-2.46476 -1.10852 14.7331 112 112 57
-0.745926 1.68397 13.3116 110 66 36
-0.37988 1.66056 13.1793 80 42 13
2.11698 1.4358 12.5035 42 13 1
1.55952 1.6407 13.0895 94 64 57
0.738799 2.12211 12.6597 90 48 26
0.774101 2.12948 12.8226 59 24 16
0.703929 2.25505 13.0704 36 10 4
0.800404 2.88265 13.4775 34 10 6
-0.404978 3.49311 14.8844 110 86 64
1.36608 2.62834 9.40522 103 111 92
3.59077 3.02249 14.7364 44 19 15
3.5463 3.04499 14.7387 110 84 80
2.84401 3.30147 14.0907 114 89 86
4.49582 2.73148 11.7864 138 129 114
2.90139 3.31798 14.0538 35 12 8
0.893658 3.66374 14.0026 135 102 93
3.52358 3.46906 14.9858 108 80 77
4.56713 3.33146 12.3286 78 58 46
2.68067 -3.97429 14.6643 120 130 88
6.13506 -3.50656 13.4062 158 156 108
4.44878 -1.66763 8.6442 150 152 108
0.509247 -2.11856 14.242 106 113 80
1.47091 -1.76559 14.0207 146 148 104
0.972472 -1.68859 14.8881 159 164 112
-2.51166 -1.13066 14.8012 135 134 78
-2.10396 -1.03541 14.7327 110 109 58
-3.53697 -0.727721 14.6056 89 67 26
2.76772 -0.722558 11.8456 78 86 76
-1.05317 -0.639293 14.9285 149 150 105
0.531835 -0.327441 13.2907 58 62 26
-0.587285 -0.365091 15.2046 116 120 74
-0.934993 1.136 13.9268 127 96 62
-1.3527 1.14624 15.7027 90 78 60
-0.918851 1.16645 14.3715 50 30 12
1.1155 1.19037 12.0724 16 19 4
2.1452 1.43964 12.3969 51 22 7
1.59644 1.56441 12.9807 24 10 4
1.46403 1.54423 10.6257 108 112 86
1.75956 1.67467 13.1341 24 5 1
0.610577 2.15082 12.9736 88 46 26
0.751808 2.13065 12.8845 79 36 22
0.0945447 2.90666 13.4683 126 113 88
0.780409 2.82874 13.2171 28 9 5
0.796999 2.87728 13.5038 27 6 4
-0.4986 3.52413 15.1124 88 59 38
4.49537 2.73045 11.7441 128 117 104
0.896475 3.77065 14.1309 115 91 89
4.84176 3.3894 12.6407 91 62 44
4.70994 3.34118 12.0151 62 35 22
2.0297 -4.62104 16.2635 131 136 88
5.69443 -3.3426 13.4423 132 134 82
5.23349 -2.80679 13.3459 92 91 69
1.56459 -1.7244 13.7305 138 140 97
0.235051 0.657173 11.6212 70 72 52
2.06369 1.31338 12.7661 67 46 32
-0.567561 2.05694 13.7457 125 104 78
0.72116 2.14133 13.0043 95 46 26
0.732551 2.16939 12.8079 114 88 82
0.759413 2.23963 12.9702 32 10 4
1.37838 2.35599 9.78673 112 117 98
1.3773 2.63384 9.35333 96 104 82
3.52906 3.04585 14.7827 88 60 56
4.46313 2.77708 12.0029 139 130 117
3.52272 3.4636 15.0036 87 58 55
0.821116 3.80445 14.3316 114 90 89
4.5742 3.34285 12.3805 76 50 36
4.6801 3.40208 12.316 71 44 30
1.23974 3.59695 9.36602 87 76 52
1.16748 3.64084 9.44129 126 114 98
-2.18287 -3.12688 12.7567 80 78 42
-0.885649 -1.8046 13.242 80 82 60
-0.506466 1.6536 13.354 99 59 32
1.62028 1.54065 12.6045 46 22 17
1.48499 1.57413 13.2926 50 28 20
2.33345 1.45304 12.1422 42 19 12
-0.338699 1.8711 13.0671 86 52 25
0.536734 2.18823 13.0969 60 20 7
0.674802 2.22902 13.1796 35 8 3
0.40599 2.77063 13.6021 42 8 2
1.33922 2.36254 9.8712 106 110 92
0.145135 2.91096 13.3488 117 110 86
1.36531 2.63809 9.37901 95 100 80
2.82116 3.2744 14.1471 91 56 50
0.876879 3.70347 14.0802 121 94 89
-1.84723 3.49095 8.69809 61 53 26
4.55237 3.35427 12.4374 96 78 68
6.33185 -3.99226 14.3005 138 143 94
-1.74062 -0.940562 14.7145 122 123 67
-3.61636 -0.731581 14.7343 82 61 20
1.18063 1.15858 11.9581 16 16 3
-0.25167 1.3593 13.2858 38 22 14
-0.362274 1.46417 13.0914 72 40 22
-0.750358 1.66378 13.243 104 60 32
-0.238549 1.94723 12.8592 132 106 84
0.683989 2.15964 12.8958 106 74 60
0.674454 2.45109 13.2021 94 61 53
