ply
format ascii 1.0
element vertex 1283
property float x
property float y
property float z
property uchar red
property uchar green
property uchar blue
end_header
-0.258664 -0.761243 3.3748 148 99 130
-0.00724298 -0.815073 3.61967 126 111 116
0.0737383 -0.805784 3.63305 166 185 172
0.163958 -0.762385 3.64287 158 162 150
0.323983 -0.663073 3.58332 206 222 217
0.253931 -0.656696 3.57318 232 238 244
0.487164 -0.642402 3.54493 67 43 50
0.554373 -0.632917 3.57558 135 95 116
0.443185 -0.611705 3.5322 66 38 41
-0.118117 -0.60289 3.54035 112 124 147
0.328973 -0.612041 3.61803 72 73 73
0.100639 -0.566865 3.4778 147 151 145
0.219769 -0.582805 3.58011 110 117 112
0.180156 -0.556869 3.5446 97 101 94
0.235106 -0.557951 3.5488 194 200 200
0.240927 -0.561191 3.60968 98 108 122
0.716478 -0.606235 3.88863 242 245 248
0.502465 -0.551157 3.58413 106 68 79
0.21949 -0.540197 3.56885 93 110 133
0.636935 -0.519801 3.70211 194 186 194
0.515799 -0.483173 3.65267 108 58 66
0.60594 -0.478444 3.62246 62 24 49
0.404998 -0.450273 3.62026 104 104 98
0.531738 -0.458635 3.68433 101 58 64
0.363474 -0.432474 3.61092 119 126 152
0.290342 -0.420541 3.59542 46 62 90
0.326703 -0.411422 3.5867 63 81 126
0.383248 -0.413011 3.5919 116 122 126
0.291179 -0.397695 3.52634 155 165 182
0.376278 -0.40569 3.61689 59 65 72
0.30742 -0.391885 3.499 207 218 220
0.265776 -0.368146 3.4518 133 136 130
0.376755 -0.382071 3.59147 205 212 208
0.420761 -0.390224 3.62066 172 177 168
0.789178 -0.440179 4.07883 213 218 212
0.345802 -0.362233 3.51072 146 154 156
0.824783 -0.424396 4.07855 138 134 110
0.792234 -0.422051 4.07841 74 74 52
0.405172 -0.337786 3.55984 106 106 98
0.54665 -0.347392 3.69122 112 106 96
0.56144 -0.34639 3.71258 172 171 154
0.572936 -0.341769 3.71058 130 124 103
0.545187 -0.336757 3.7188 190 202 196
0.188152 -0.290661 3.34266 138 144 118
0.569998 -0.319624 3.71084 153 150 134
0.31723 -0.291862 3.39428 100 102 90
0.0201476 -0.277197 3.34416 35 25 10
0.702019 -0.301056 3.72969 69 24 44
0.285006 -0.270361 3.39184 244 250 254
-0.042132 -0.255365 3.33498 36 45 48
0.110405 -0.258355 3.33645 136 145 132
0.761461 -0.267053 3.7367 141 106 128
0.278653 -0.211976 3.32341 124 135 129
0.306404 -0.165416 3.38951 232 236 247
0.751813 -0.024669 4.02564 55 34 48
0.0571368 -0.0127039 3.30092 163 166 160
0.225484 0.0103296 3.36707 179 188 174
0.231768 0.0157059 3.44219 90 99 90
0.197705 0.0177209 3.39814 142 156 134
0.696248 0.0363142 3.88158 196 198 190
0.179566 0.0404184 3.40185 142 152 144
0.215058 0.0505356 3.47102 128 139 140
0.53964 0.0538559 3.61609 64 70 76
0.281764 0.0607828 3.5453 106 118 123
0.508481 0.0750599 3.60699 164 176 179
0.703227 0.0754158 3.87344 80 92 111
0.562579 0.0923135 3.7215 110 121 128
0.776992 0.0983509 3.8572 193 196 190
0.831316 0.0959901 3.48881 133 137 136
0.0101661 0.094521 3.3437 82 88 89
-0.00860959 0.106896 3.20118 80 81 84
-0.00970853 0.0984661 3.37468 32 27 23
0.155005 0.117485 3.41766 138 153 159
-0.541804 0.239763 3.45871 112 108 96
0.621863 0.280224 3.33748 60 110 139
0.155084 0.288112 3.39041 118 142 154
0.622298 0.289084 3.2804 4 51 78
-0.0220528 0.413332 3.35291 70 84 86
-0.107182 0.474137 3.34047 64 76 74
0.248935 0.48779 3.4364 72 84 84
0.120693 0.486702 3.37156 46 59 60
0.0325996 0.483443 3.3218 106 115 115
0.00729671 0.496526 3.34689 133 152 162
0.710755 0.516133 3.37823 55 82 102
0.650228 0.517023 3.32384 118 124 120
0.593013 0.519967 3.28179 226 228 234
0.611131 0.538906 3.30558 214 218 217
0.510243 0.59549 3.4102 69 58 52
0.636024 0.618574 3.38052 164 158 154
-0.781014 0.703945 3.7802 145 133 121
-0.0918381 0.705731 3.64372 138 120 79
-0.640544 0.783871 3.70734 150 158 154
-0.759397 0.787661 3.71894 147 140 136
0.0204131 0.794787 3.60235 146 140 110
-0.245653 1.01577 3.80673 102 92 80
0.342985 1.00838 3.70367 208 202 187
0.378641 1.023 3.70873 202 202 179
0.320112 1.028 3.71392 151 136 103
0.237876 1.06978 3.64981 133 117 82
0.316632 1.11144 3.684 128 120 102
0.0183442 1.15443 3.75274 118 103 70
0.359272 1.28206 3.95581 65 63 54
0.121694 1.32286 3.7925 124 121 98
0.0775555 1.36013 3.77091 100 108 118
0.19932 1.49887 3.90718 104 134 177
0.102625 1.51079 3.85033 40 61 95
0.186415 1.54315 3.90391 16 46 85
0.16398 1.7338 3.88981 88 120 166
0.112931 -1.06136 3.51889 179 143 164
-0.0450074 -0.998183 3.41603 138 116 144
0.107267 -0.915482 3.54837 104 72 88
0.499241 -0.849349 3.53869 106 72 94
-0.249814 -0.784144 3.40118 161 109 144
0.0773863 -0.81975 3.61865 168 154 152
0.212442 -0.789839 3.59148 38 24 25
-0.184761 -0.756538 3.48039 124 78 102
0.309643 -0.709922 3.61918 130 124 112
0.553814 -0.62484 3.55592 141 102 126
-0.119153 -0.605135 3.53951 84 98 122
0.403189 -0.584609 3.56121 82 62 48
0.715673 -0.607539 3.89173 242 245 248
0.244868 -0.554514 3.59398 33 45 68
0.505034 -0.552989 3.60741 113 75 86
0.200373 -0.51796 3.53017 82 98 114
0.49002 -0.456517 3.64301 141 124 114
0.41351 -0.422175 3.60917 68 70 58
0.283782 -0.410251 3.59293 172 180 195
0.377817 -0.403142 3.60738 50 55 64
0.813009 -0.44394 4.07004 154 153 130
0.787857 -0.437236 4.07631 210 214 209
0.824344 -0.424032 4.07702 150 144 122
0.862959 -0.403765 4.0901 122 126 120
0.54091 -0.361249 3.7177 108 104 97
0.560132 -0.347582 3.71543 190 191 174
0.207582 -0.286526 3.34253 95 94 64
0.0374311 -0.275007 3.32336 110 100 82
0.00938236 -0.260599 3.32026 152 151 138
0.500725 -0.25445 3.45338 136 126 123
-0.0713056 -0.23804 3.30931 174 180 178
0.107061 -0.231139 3.34408 70 76 53
0.775481 -0.231324 3.7476 86 36 66
0.281691 -0.150305 3.36283 224 230 241
0.143729 -0.0961469 3.27391 222 224 237
0.129629 -0.00900295 3.42098 182 192 188
0.209329 0.013802 3.35802 193 204 186
0.179883 0.0407334 3.3957 173 184 176
0.353788 0.0532739 3.48798 46 48 40
0.410624 0.0717842 3.49425 109 120 115
0.701185 0.0766254 3.87396 77 88 108
0.426468 0.0970278 3.5168 121 139 144
0.260304 0.137276 3.45493 132 156 161
0.614415 0.21982 3.45323 32 107 141
-0.0297335 0.229604 3.33996 65 82 80
0.784527 0.283998 3.54022 21 76 104
0.751906 0.341827 3.3652 10 66 100
-0.553364 0.483408 3.78324 67 50 42
0.707013 0.512986 3.361 43 75 97
0.112593 0.524743 3.42212 63 74 62
0.597017 0.530872 3.35889 213 216 225
0.622414 0.524492 3.32337 102 101 86
0.425467 0.554518 3.46405 47 40 27
0.506855 0.639792 3.47035 79 68 63
0.243903 0.798642 3.77558 152 140 98
-0.507689 0.825077 3.73371 72 68 52
-0.699597 0.822895 3.67048 178 182 174
0.265156 0.868621 3.83564 140 131 126
0.290807 0.940726 3.71084 101 90 65
0.3412 1.01447 3.73676 190 186 170
0.503826 1.3228 4.32879 118 122 122
0.111711 1.33907 3.80807 136 133 112
0.194885 1.48663 3.86184 108 132 170
0.245158 1.69283 4.00322 88 122 172
-0.0532847 -1.00879 3.45949 125 102 130
-0.18534 -0.851494 3.39109 151 94 126
0.0783406 -0.828591 3.62253 114 88 91
0.1021 -0.822473 3.61056 81 70 75
0.111207 -0.809576 3.60256 178 176 174
0.00918856 -0.750717 3.57397 202 206 206
0.209941 -0.627771 3.51457 210 215 220
0.325001 -0.619399 3.60992 184 186 189
0.342824 -0.622442 3.61909 197 202 194
0.025121 -0.588282 3.51265 182 180 172
0.39505 -0.603597 3.65893 52 41 26
0.267594 -0.584006 3.57089 197 196 184
0.0878817 -0.546138 3.46607 194 190 182
0.361794 -0.559929 3.61424 99 99 88
0.202819 -0.52341 3.55562 138 149 152
0.695532 -0.500281 3.66938 156 164 170
0.238276 -0.399721 3.38747 92 100 119
0.333556 -0.424672 3.56287 38 51 97
0.762685 -0.465686 4.06516 214 222 214
0.294068 -0.397615 3.54981 172 180 196
0.355218 -0.403098 3.59262 120 132 146
0.262767 -0.365686 3.46833 131 136 131
0.549695 -0.376417 3.66379 76 40 40
0.578407 -0.387213 3.69256 117 78 94
0.360194 -0.361935 3.51062 157 164 166
-0.109875 -0.314941 3.3039 146 132 122
0.020571 -0.283482 3.32746 29 20 6
0.803749 -0.290824 3.78776 226 236 242
0.0651759 -0.249881 3.2835 108 109 96
0.0915093 -0.239322 3.34022 58 70 65
0.0857763 -0.2171 3.30902 164 174 162
0.310026 -0.223843 3.37806 70 76 66
-0.183073 -0.120206 3.36914 121 122 108
0.14367 -0.0955906 3.27118 226 228 241
0.1076 -0.0185112 3.33382 149 156 156
0.573851 0.0107764 3.62989 127 136 134
-0.195456 0.0230087 3.40838 55 72 76
0.700558 0.0563279 3.95297 56 70 85
0.70222 0.0771357 3.91042 77 88 108
0.428264 0.0978213 3.51656 112 130 137
0.835338 0.101975 3.5257 82 89 90
-0.0149413 0.0987429 3.38369 30 24 18
0.0248935 0.102113 3.37645 180 189 184
0.16089 0.183494 3.43966 144 164 170
0.178842 0.496956 3.45711 100 118 120
0.236606 0.507851 3.45375 106 120 126
0.717682 0.53645 3.48551 44 79 104
0.698313 0.539942 3.42034 196 210 210
0.412756 0.608424 3.55187 44 38 24
0.503301 0.640561 3.51631 78 70 62
0.667753 0.638086 3.43738 202 208 212
0.26544 0.86982 3.83845 139 131 126
0.282413 0.94203 3.70463 98 86 64
-0.0340927 1.1953 3.74526 126 108 74
-0.0897718 1.25442 3.83095 34 27 18
0.411389 1.43316 4.16776 140 148 150
0.193568 1.48573 3.84815 88 111 146
0.177748 1.51899 3.84412 65 94 140
0.137903 1.55121 3.90984 70 96 138
0.0842239 1.58778 3.86157 72 103 149
0.245292 1.69049 3.99255 88 123 172
0.11921 -0.977097 3.4748 121 85 108
0.507373 -0.831588 3.48263 105 75 88
0.159916 -0.764897 3.63992 131 138 126
0.528381 -0.688568 3.49965 154 124 158
-0.0568291 -0.640205 3.51974 196 194 185
-0.247702 -0.626585 3.51531 99 96 79
-0.316496 -0.592331 3.51058 126 118 126
0.332971 -0.60715 3.62287 72 74 70
-0.420063 -0.49335 3.50741 114 110 105
0.463948 -0.500259 3.61958 120 110 82
0.461909 -0.473977 3.6521 54 62 48
0.164629 -0.390699 3.3234 237 242 246
0.377643 -0.410189 3.62577 75 80 96
0.771766 -0.445664 4.00996 201 208 205
0.314284 -0.298329 3.393 108 108 98
0.566019 -0.317319 3.61812 116 111 93
0.0160402 -0.286091 3.33771 39 27 13
0.0817437 -0.222269 3.32008 170 181 170
0.0873397 -0.199845 3.31241 120 129 114
0.0226977 -0.113141 3.25574 184 180 182
-0.0422253 -0.0467372 3.26859 43 35 20
-0.301431 -0.0295472 3.3999 133 132 126
0.108436 -0.0174959 3.33637 143 150 150
0.165537 0.0598742 3.37502 213 223 224
-0.111681 0.0645579 3.40862 72 76 66
0.13058 0.068294 3.36676 216 224 233
0.492892 0.07889 3.57509 172 186 189
0.774929 0.0943534 3.82319 185 186 180
0.125981 0.136756 3.42101 30 44 52
0.170052 0.180733 3.37355 142 163 172
0.600751 0.207801 3.46883 68 130 147
-0.0416766 0.227096 3.39338 80 97 94
-0.000713613 0.526943 3.44366 40 48 43
0.117254 0.517233 3.38822 59 71 60
-0.755948 0.642879 3.7925 88 69 50
-0.769468 0.710415 3.74273 153 146 142
-0.797317 0.865434 3.74517 66 60 38
0.258727 0.887228 3.77431 98 78 54
-0.456422 0.907949 3.72029 97 88 73
0.516101 1.14766 4.66222 93 88 98
0.332939 1.02397 3.76736 151 144 130
0.314176 1.11389 3.69209 144 134 116
0.0322931 1.13097 3.74513 102 87 54
-0.0317404 1.1876 3.75282 114 96 60
0.124401 1.283 3.80051 63 48 21
0.141372 1.28889 3.74891 78 68 32
0.443306 1.43896 4.21712 89 98 108
0.0787407 1.34812 3.74328 96 102 109
-0.450629 1.514 3.85824 62 98 142
-0.0183084 -0.802708 3.61966 178 190 190
0.49187 -0.723442 3.51449 128 95 114
0.17915 -0.705754 3.55997 102 92 80
0.067311 -0.626058 3.49854 198 200 204
0.329104 -0.612188 3.5871 134 135 137
-0.293911 -0.586203 3.47392 140 142 146
0.0402903 -0.595755 3.49475 123 120 114
0.0125399 -0.552388 3.3684 125 123 125
0.295051 -0.572158 3.57686 58 60 44
0.719462 -0.61382 3.8958 224 226 228
0.349183 -0.541709 3.6118 211 212 216
0.371644 -0.532942 3.58663 52 53 38
-0.400781 -0.506138 3.50609 106 100 98
-0.414188 -0.493831 3.48902 109 99 98
0.303045 -0.432594 3.59304 96 124 170
0.50501 -0.417641 3.70877 216 214 200
-0.158957 -0.344885 3.32729 172 168 163
0.510317 -0.379903 3.66638 80 87 80
0.329991 -0.30099 3.41051 205 200 199
0.202805 -0.27264 3.35455 50 42 16
0.573446 -0.288423 3.6353 92 86 76
0.141261 -0.253721 3.3439 218 228 216
0.0582851 -0.241221 3.31701 174 178 172
0.838465 -0.245177 3.87934 174 146 148
0.0527729 -0.0269207 3.3033 116 108 99
0.126035 0.0707217 3.39978 231 236 244
-0.0764782 0.0772265 3.35559 76 78 73
0.519406 0.0828209 3.58373 59 71 75
-0.0493775 0.111499 3.40183 80 91 100
-0.0441431 0.161829 3.40149 98 112 120
0.306231 0.17314 3.47159 136 156 162
0.298552 0.2294 3.46948 60 75 78
-0.160384 0.293764 3.40908 62 74 78
-0.108797 0.455066 3.30082 93 104 96
0.390114 0.481171 3.41525 124 114 100
0.193575 0.484099 3.4139 22 24 16
0.242119 0.504903 3.43607 113 128 136
0.0443064 0.530494 3.38241 122 136 141
-0.618771 0.727925 3.77748 44 45 41
-0.802733 0.861852 3.75382 78 70 48
0.343589 1.03488 3.70964 190 186 183
0.24111 1.49243 3.9728 72 93 126
0.239984 1.70964 4.03891 81 116 163
-0.0971146 -1.00341 3.49822 102 70 98
-0.256462 -0.792588 3.41912 132 80 116
0.0864535 -0.815576 3.65123 134 142 138
0.0222914 -0.789569 3.62847 69 78 62
-0.0996096 -0.695224 3.49824 135 127 119
-0.190854 -0.567441 3.50507 140 140 142
0.20523 -0.571993 3.58427 146 155 138
0.724694 -0.625952 3.98986 218 222 224
0.0177557 -0.498145 3.30518 41 31 35
0.356457 -0.520984 3.60271 170 168 162
-0.521813 -0.378608 3.48807 46 32 20
0.444718 -0.376138 3.56774 192 194 202
0.512569 -0.381979 3.66348 124 126 120
-0.0353724 -0.291065 3.29128 180 186 176
0.340064 -0.307111 3.45078 201 196 199
0.481017 -0.303283 3.5146 148 134 132
0.570533 -0.296743 3.67784 77 71 59
0.789435 -0.297519 3.9752 176 160 169
0.0517153 -0.0265001 3.30138 112 105 95
0.137756 -0.0187453 3.35541 140 146 148
-0.351314 0.033614 3.44413 99 106 103
0.491042 0.0706974 3.58941 192 204 206
0.431302 0.0799221 3.51457 170 182 177
0.578829 0.0936057 3.79786 96 110 120
-0.302065 0.160445 3.38223 87 102 111
0.0267123 0.442499 3.33436 66 68 71
0.237256 0.516913 3.50684 115 128 136
0.696388 0.508885 3.39007 34 92 131
0.66709 0.634589 3.43477 202 208 212
-0.709569 0.779525 3.70834 86 79 67
0.238519 0.899865 3.81299 86 68 38
0.224582 0.931532 3.76924 110 103 70
0.270582 0.957699 3.71535 86 72 47
0.211874 1.02104 3.69738 128 116 82
-0.394739 1.11468 3.78869 80 68 42
0.285551 1.36533 3.94111 140 136 110
0.167348 1.35579 3.83461 132 127 94
0.032033 1.4246 4.00945 84 87 100
0.166939 1.50108 3.75446 78 109 157
0.237272 1.68775 4.00681 66 102 149
-0.195055 -0.698865 3.51802 163 172 156
-0.195868 -0.639716 3.52663 192 192 209
-0.109902 -0.64018 3.52376 166 170 179
-0.00219019 -0.630623 3.46566 130 122 118
-0.259616 -0.625689 3.52834 106 102 92
-0.303278 -0.617043 3.54412 86 66 78
-0.0812963 -0.608016 3.4968 136 138 132
0.457862 -0.477167 3.66182 114 125 114
-0.24245 -0.415821 3.38878 164 155 154
0.717598 -0.415606 3.71821 132 140 120
-0.101703 -0.318332 3.30013 173 160 156
-0.0546778 -0.295311 3.3205 210 214 217
0.0362881 -0.274896 3.32091 114 106 86
0.192257 -0.273488 3.36934 90 88 59
-0.199974 -0.128377 3.30617 176 190 183
-0.773823 -0.133011 3.79003 134 117 102
0.0993907 -0.0638866 3.25981 212 216 221
0.0300034 0.066536 3.30858 179 181 186
0.772064 0.0829947 3.79783 208 200 187
-0.027897 0.0919106 3.40511 30 21 12
0.830364 0.101692 3.58981 118 132 128
-0.00366134 0.141729 3.40764 108 128 142
-0.928378 0.185766 4.30776 142 123 98
0.0975407 0.209576 3.38794 142 163 172
-0.122791 0.383356 3.33446 67 72 68
0.393284 0.48016 3.40053 122 113 100
0.485047 0.526071 3.40238 50 42 38
0.419236 0.5489 3.47106 82 74 62
0.409825 0.594672 3.52019 86 81 67
0.242798 0.899976 3.82731 89 70 43
-1.32007 1.11438 4.28691 118 112 100
-0.0529625 1.29313 3.84775 99 101 93
-0.437957 1.29506 3.7762 52 80 118
-0.136676 1.49252 3.97576 68 82 111
0.196828 1.47864 3.85362 54 76 114
0.169525 1.49737 3.75042 78 108 156
0.193341 -1.62791 4.09903 136 92 111
0.264202 -1.62461 4.1753 152 118 148
-0.145973 -0.817348 3.42935 140 86 112
-0.138474 -0.803758 3.49313 158 103 126
0.0653406 -0.826063 3.62138 74 51 50
0.293274 -0.60377 3.57942 196 197 196
0.356639 -0.55449 3.63485 164 170 162
0.572779 -0.325514 3.71128 126 125 106
0.177648 -0.292294 3.34696 176 184 161
0.0922496 -0.241179 3.33268 42 52 37
0.273079 -0.213946 3.39101 160 168 163
0.269071 -0.177707 3.36377 156 158 156
0.745337 -0.00465656 4.03002 146 134 132
0.297489 0.00318271 3.4595 128 129 122
0.707277 0.0240989 4.06564 170 174 166
0.322545 0.0422959 3.4988 102 104 108
0.0430019 0.110236 3.37497 46 63 68
0.861087 0.235401 3.48691 91 109 116
0.655112 0.50905 3.33992 154 172 178
-0.652099 0.733686 3.74331 132 138 138
-0.625617 0.735944 3.78165 72 74 74
-0.694523 0.787486 3.69412 63 58 44
0.244887 0.818389 3.78879 172 160 118
-0.668718 0.799747 3.6972 162 162 152
-0.672583 0.820963 3.71364 59 66 52
0.313733 1.11635 3.70067 112 107 80
-0.0329513 -0.812842 3.56484 92 52 68
0.360165 -0.566331 3.63436 104 112 100
0.22917 -0.544411 3.54901 98 108 125
0.451319 -0.522851 3.62163 97 86 73
0.360881 -0.488922 3.62319 135 144 146
-0.509402 -0.446317 3.54581 61 52 46
0.538991 -0.36448 3.7063 144 144 135
0.118329 0.0423606 3.36592 234 244 254
-0.0743036 0.0777527 3.33367 82 86 80
0.86042 0.237916 3.49433 90 109 116
0.641333 0.575749 3.3554 144 140 140
-0.177855 1.05008 3.6784 102 98 72
-0.444086 1.52294 3.86715 54 88 126
0.276717 -0.777987 3.60104 64 41 48
0.289497 -0.609203 3.59534 162 166 165
0.59437 -0.582158 3.66181 119 77 90
0.306137 -0.439506 3.61561 93 108 148
0.486877 -0.373248 3.6532 204 212 213
0.3336 -0.301852 3.41219 192 190 190
-0.647892 0.00140612 3.65492 138 127 114
0.6956 0.0220098 3.94383 118 123 116
-0.545852 0.51231 3.75036 122 120 110
0.498991 1.36563 4.3285 75 79 82
0.173083 -1.65586 4.11508 110 75 68
-0.0912342 -0.97585 3.41735 146 116 142
-0.342767 -0.479015 3.50068 52 52 40
0.640202 -0.509997 3.77511 199 186 190
0.350339 -0.380328 3.57755 165 176 176
0.583242 -0.313429 3.67568 125 122 99
-0.328416 -0.01679 3.42581 106 108 102
-0.652323 -0.000507821 3.65994 140 129 116
0.278992 0.057393 3.4938 58 68 68
-0.0262797 0.205683 3.36323 38 50 50
0.196024 0.496329 3.46458 13 18 12
0.57191 0.537456 3.29311 172 168 168
-0.62698 0.73263 3.79473 86 88 87
-0.790271 0.881986 3.77223 76 70 54
0.313338 1.11653 3.70192 123 117 92
0.250195 0.780115 1.87866 78 95 118
0.278405 -1.64761 4.16297 100 86 86
0.357943 -0.667571 3.62589 54 41 24
-0.00785986 -0.568645 3.5075 108 106 104
0.274395 -0.362067 3.43423 122 125 122
0.400022 -0.339067 3.55527 90 98 96
0.0708375 -0.0922578 3.24603 182 184 188
0.0838714 -0.0528967 3.25757 189 188 193
-0.649828 0.00315688 3.64363 146 134 122
0.693682 0.531472 3.38688 140 169 180
0.570651 0.527916 3.30807 166 164 168
0.440344 1.39201 4.19552 60 63 65
0.280255 -1.58865 4.17999 116 51 68
0.362622 -0.482122 3.55579 126 127 138
0.72925 -0.368273 3.97258 169 158 156
0.11868 -0.0229883 3.31061 154 161 160
-0.446498 0.0120429 3.51566 29 33 30
0.491895 0.0756452 3.56529 171 185 188
-0.095342 0.0784734 3.37048 54 64 60
-0.0360963 0.23009 3.36626 78 97 96
0.157729 0.487556 3.53027 104 132 130
0.181931 0.506883 3.49597 73 60 48
-0.754756 0.774619 3.71087 146 143 139
-0.221287 -0.666312 3.50478 109 96 94
0.762457 -0.662811 3.84974 164 150 128
0.339166 -0.603664 3.59213 126 130 122
0.0427233 -0.270448 3.30862 88 80 58
-0.0776214 -0.257492 3.32244 48 59 44
0.25442 -0.209618 3.37354 46 51 46
-0.253589 -0.0105301 3.41412 167 182 172
0.331193 0.00718167 3.45959 42 41 32
-0.180331 0.0416843 3.40815 56 63 66
0.130044 0.109396 3.39898 64 75 80
0.859023 0.235405 3.50296 90 111 121
0.136446 0.372547 3.41868 85 114 131
-0.129574 -0.0593561 3.35191 36 32 18
-0.307894 0.208543 3.41675 92 106 113
0.859214 0.228463 3.51565 94 114 122
-0.0427908 0.349409 3.39797 85 98 100
0.796697 0.413606 3.45283 170 173 166
0.324764 0.547472 3.49899 50 36 23
-0.0406446 1.23507 3.84741 36 26 10
-0.475967 1.24672 3.79281 119 115 96
0.197354 -0.744293 3.57676 134 132 112
-0.23024 -0.652032 3.50769 135 138 127
0.224556 -0.547213 3.56945 83 93 104
0.549256 -0.523316 4.30952 163 164 142
-0.153759 -0.344467 3.32374 156 146 135
0.863041 -0.401925 4.08135 120 122 116
0.565002 -0.331979 3.71437 118 118 96
0.751862 -0.0217199 3.996 42 26 35
0.44399 0.085119 3.53516 154 170 162
0.692041 0.542832 3.41724 146 158 146
0.356606 -0.553537 3.63175 168 174 166
0.556943 -0.371569 3.66754 101 84 76
0.86165 -0.403455 4.09157 128 133 126
0.809921 -0.3238 4.11816 204 202 204
0.034272 -0.255623 3.3276 79 76 56
0.112231 0.0391759 3.38368 225 234 246
-0.0207217 0.521376 3.43918 46 52 46
0.565269 0.54408 3.30191 136 128 128
-0.191919 -0.786629 3.42255 122 74 102
0.144531 -0.580635 3.57475 179 186 174
0.302651 -0.420661 3.59035 112 132 176
0.335796 -0.387465 3.61533 166 177 176
-0.107353 -0.193536 3.31726 163 162 162
0.631147 0.0935134 2.94135 126 130 123
0.853162 0.107257 3.61142 136 135 130
0.173192 0.176675 3.39344 138 156 164
0.818853 -0.426656 4.08154 138 135 115
-0.15852 0.0457206 3.4068 86 88 89
-0.25736 -0.606251 3.51636 26 26 26
-0.301686 0.00631365 3.37558 78 84 86
0.0263687 -0.785547 3.60773 46 54 34
0.497998 0.260463 3.35635 70 90 94
0.107249 0.39196 3.38536 128 144 154
1.00805 -0.758154 4.17941 215 212 206
0.332047 -0.43042 3.52754 30 45 79
0.505107 -0.409895 3.68252 186 198 188
0.19115 0.0770326 3.45296 100 114 108
0.3949 0.47696 3.40838 110 104 92
0.317763 -0.694612 3.59826 108 102 88
0.073233 -0.628674 3.49307 182 187 188
0.558994 0.0501509 3.58596 60 70 70
0.346378 -0.564689 3.59737 144 150 144
0.764776 -0.240971 3.77785 74 29 56
0.176827 0.0770297 3.44117 72 88 86
0.654863 -0.462441 3.66403 83 52 64
0.401007 -0.408538 3.61657 166 173 162
0.583491 -0.338347 3.69427 81 68 56
0.582349 -0.270701 3.63051 105 106 98
0.287494 -0.346948 3.42088 103 106 102
0.331997 -0.0812754 3.4016 146 152 145
0.172868 -0.761823 3.60752 112 118 98
-0.0121238 -0.592315 3.51997 175 181 178
0.0444763 -0.528234 3.4419 46 38 28
0.448328 -0.502714 3.64364 170 178 164
-0.118811 -0.0860403 3.33826 74 66 47
0.140357 0.361446 3.41375 98 126 146
0.624778 0.515581 3.32484 90 98 84
-0.081081 -0.972177 3.39096 108 82 104
0.681516 -0.498977 3.61993 186 192 190
0.624864 -0.185383 3.58732 212 214 214
0.822055 -0.047581 4.02732 88 65 80
0.656108 0.519361 3.34271 142 158 154
-0.0406359 -0.787717 3.60407 104 116 114
-0.259553 -0.61793 3.52762 71 72 66
0.229484 -0.557193 3.59599 152 157 162
0.479004 -0.387682 3.62782 200 203 212
0.315639 -0.076737 3.41845 142 152 148
0.279824 0.182727 3.38642 106 132 140
-0.117634 -0.775945 3.51615 99 82 87
-0.227272 -0.667181 3.47937 130 106 112
0.186466 -0.533671 3.41728 167 175 164
0.234124 -0.471152 3.45528 47 59 68
-0.420709 -0.00692243 3.47115 60 56 51
-0.342447 -0.0131907 3.43642 52 56 51
0.0121479 0.0256756 3.3405 168 164 168
0.110002 0.041652 3.37977 219 230 242
-0.230638 -0.555052 3.50927 56 58 58
0.12762 -0.529855 3.48165 133 132 130
0.362944 -0.547345 3.62439 164 170 160
0.520054 -0.379865 3.66917 68 74 64
0.543268 -0.370854 3.71319 152 136 130
0.581119 -0.344104 3.68573 76 63 54
0.77101 -0.248643 3.73412 150 106 135
0.609478 -0.235181 3.62953 146 142 148
0.1557 0.289442 3.39338 108 132 146
-0.0812533 -0.713684 3.55879 166 166 166
0.365635 -0.555512 3.62292 152 158 148
0.166957 -0.389362 3.29784 226 232 238
-0.144678 -0.18257 3.30669 140 148 140
0.258572 -0.221506 2.07871 71 68 71
0.779057 -0.416661 4.00887 58 59 38
0.104547 0.406457 3.39572 126 146 158
0.0124931 0.470891 3.32964 122 138 139
0.00168442 -0.682642 3.41823 182 190 192
-0.0123619 -0.564142 3.53408 124 126 124
0.734256 -0.311102 3.71655 168 140 155
0.0996037 0.408465 3.40301 126 144 154
0.623258 0.519452 3.32556 89 93 82
0.351888 1.31021 4.03582 48 46 47
-0.0817423 -0.719028 3.49738 138 133 132
-0.195776 -0.717784 3.53343 180 176 170
0.22489 -0.41363 3.45051 83 89 108
0.351499 1.30577 4.01945 55 55 52
0.114867 -1.04299 3.47268 173 132 156
0.108468 -0.109727 3.24724 150 144 139
0.130389 0.0682961 3.4583 204 214 220
0.133115 -0.764429 3.64396 138 146 143
-0.196143 -0.580834 3.49753 138 142 141
0.136585 -0.0167082 3.34862 104 112 114
-0.215014 0.352474 3.39256 80 96 102
-0.434431 0.890801 3.71162 131 134 131
0.352116 -0.583277 3.60926 118 127 114
-0.143757 -0.190785 3.32054 134 142 139
-0.848282 -0.17103 3.83099 71 54 40
0.509244 0.0896929 2.00092 103 123 121
0.693307 0.521325 3.34279 177 187 182
-0.0820896 -0.972215 3.40463 123 97 124
0.476616 -0.549053 3.59952 89 56 64
0.754393 -0.504007 4.02367 104 118 109
0.763671 -0.48771 4.07024 118 130 116
0.566883 -0.289621 3.62804 130 131 122
0.704584 -0.283182 3.74515 85 48 68
0.134275 -0.254535 3.38056 214 224 213
0.696571 0.125998 3.81052 50 58 70
0.630299 0.370241 5.03887 127 150 162
0.0957092 0.354875 3.40007 70 86 96
0.763634 -0.467109 4.05046 208 220 212
0.813071 -0.449129 4.06812 154 154 138
0.0626841 -0.0760806 3.26653 176 174 180
0.725043 -0.00256299 4.01211 126 120 116
0.623667 -0.522593 3.72599 185 166 174
-0.741284 -0.480777 3.91488 88 70 58
0.0124226 -0.0971825 3.25973 112 110 110
0.720154 -0.607534 3.93561 218 220 226
-0.739658 -0.511023 3.91039 46 32 14
0.567302 -0.290753 3.62892 140 138 133
-0.0203049 -0.317133 3.30524 110 110 92
-0.0713416 -0.175319 3.30341 144 144 141
0.193468 -0.475274 3.4843 162 172 175
-0.752084 -0.516822 3.92269 60 45 26
0.0917848 -0.0555493 3.28053 204 208 220
-0.0216604 -0.528585 3.55068 22 18 16
-0.7436 -0.473014 3.87963 90 72 58
0.665404 -0.31462 3.15255 150 156 146
0.00510341 -0.296721 3.30831 55 46 30
0.448468 0.222394 3.50286 54 68 69
0.372272 -0.599073 3.61219 175 176 174
0.238641 -0.534094 3.5651 76 85 122
0.690079 -0.44414 3.72826 222 218 224
0.286942 -0.342714 3.42207 104 108 110
0.548495 -0.335138 3.73975 176 188 178
0.0836037 -0.244425 3.29264 116 129 129
-0.637248 -0.00366978 3.63164 68 62 54
0.136713 0.533813 3.47841 85 103 108
0.573264 0.552682 3.27848 118 120 126
0.4708 1.22201 3.81978 68 74 80
-0.0481999 1.24647 3.83281 34 26 13
-0.224175 -0.842847 3.36411 134 90 120
0.557567 -0.295618 3.58835 161 158 152
0.737056 0.110793 3.69072 96 100 108
0.430015 0.117408 3.5447 72 94 102
0.549221 0.221121 3.48837 84 115 120
0.287088 0.668358 3.87293 52 46 32
0.106736 -1.03292 3.48347 150 106 135
0.482555 -0.582677 3.57549 127 94 102
0.516739 -0.529222 3.60203 99 62 78
0.00395973 -0.304568 3.32956 54 46 30
0.171192 0.53009 3.60536 46 52 49
0.428397 0.528503 3.4158 62 55 40
0.532402 -0.40774 3.6996 97 65 62
0.57328 -0.336025 3.64869 96 84 70
0.555094 0.0379996 3.56508 54 65 71
-0.638093 0.759787 3.67984 87 95 91
0.323988 -0.579068 3.59535 207 212 218
0.633817 -0.534285 3.66361 190 188 187
0.290524 -0.436622 3.60441 44 62 96
0.777943 -0.287758 3.74261 186 190 185
-0.844844 -0.213532 3.81101 110 90 74
0.0045992 0.534992 3.4352 62 68 63
0.354948 1.06667 3.84214 176 182 170
0.124476 -1.05212 3.45285 127 84 108
0.417264 -0.395101 3.60395 164 172 166
0.696961 0.0610432 3.90825 60 76 84
0.604837 0.617536 3.4095 107 110 102
0.669063 0.63163 3.43481 186 193 202
0.4662 1.22798 3.86005 56 61 66
0.134976 -1.00863 3.56686 58 36 44
0.722389 -0.542385 3.9619 206 215 230
0.571065 0.0391824 3.69689 88 100 108
0.536481 -0.143208 3.45535 247 249 255
-0.0188682 0.56949 3.56394 104 108 95
-0.724409 0.83862 3.70819 134 130 123
0.0938306 -1.09319 3.45429 123 84 97
-0.174546 -1.01621 3.48433 133 108 98
-0.0936723 -0.962108 3.35842 78 38 64
-0.0619056 -0.96565 3.40764 78 46 76
0.468839 -0.829691 3.48658 90 45 63
0.163788 -0.765825 3.6749 156 163 150
0.395077 -0.603509 3.64642 54 38 31
0.240138 -0.581859 3.59873 92 90 78
0.301674 -0.533686 3.61897 63 67 86
0.369375 -0.509619 3.63126 229 230 232
0.275793 -0.391146 3.49769 128 126 127
0.257266 -0.374382 3.41567 168 172 172
0.0924481 -0.251757 3.3076 85 95 90
0.135069 -0.253151 3.36596 216 225 218
0.500056 -0.246091 3.39262 149 141 140
0.697311 0.0548455 3.8476 52 66 76
0.496999 0.0825761 3.57286 149 164 168
0.839101 0.0994038 3.52094 114 116 116
-0.498563 0.272705 3.47017 78 84 90
0.682492 0.285659 3.37688 54 119 149
0.162262 0.313259 1.95693 66 62 50
-0.0571911 0.504181 3.33179 28 32 22
-0.0327575 0.497798 3.29398 50 50 48
0.223709 0.599354 3.70461 90 78 56
-0.0191666 -0.83686 3.54224 82 42 62
0.367858 -0.59682 3.58447 175 178 170
0.527934 -0.504797 3.6261 66 27 42
0.335052 -0.379036 3.52675 216 226 234
0.544633 -0.303341 3.53901 184 186 179
-0.15327 0.0283529 3.41753 80 77 72
0.694865 0.054239 3.84057 66 78 89
0.51737 0.0942806 3.63786 81 96 101
0.613353 0.194213 3.60216 54 74 80
0.152092 0.229736 3.41499 80 103 108
-0.443814 0.313014 3.49914 80 92 96
0.573207 0.552249 3.28427 112 112 118
-0.756035 0.705054 3.70955 164 165 168
-0.166936 -0.832847 3.39069 88 36 64
0.505844 -0.823745 3.47158 86 64 82
0.236284 -0.409961 3.43123 78 86 104
0.331021 -0.31437 3.33707 172 168 170
0.5689 -0.311351 3.62647 86 81 72
0.104292 -0.241185 3.37774 108 119 110
0.313176 -0.214709 3.37357 99 102 90
-0.843195 -0.149534 3.90198 44 29 26
0.30692 -0.0707696 3.40362 218 228 234
0.0815804 0.148971 3.3772 48 64 76
0.115985 0.203932 3.38414 106 127 144
-0.429396 0.270347 3.40502 48 62 67
0.0411517 0.48616 3.346 66 78 84
-0.0327337 0.492942 3.28804 40 39 36
-0.061917 0.51848 3.41273 35 40 28
-0.744957 0.628361 3.75597 87 68 53
0.426587 1.06518 3.5894 94 86 80
0.276318 -0.419947 3.56644 42 53 76
0.30952 -0.397534 3.43826 150 166 192
-0.00950441 -0.341105 3.29511 160 152 154
0.616388 -0.187074 3.47994 216 212 218
-0.0878676 0.0882615 3.46658 82 86 85
-0.493242 0.266805 3.45477 82 92 100
-0.121242 0.414426 3.32943 63 74 75
0.108074 0.431823 3.42062 100 122 132
0.26989 0.548461 3.56676 53 60 60
0.0371386 0.51093 3.26918 73 68 50
0.0610142 0.531628 3.3746 160 184 199
0.467516 -0.361239 3.6123 136 140 144
-0.0590656 -0.28353 3.32526 196 206 208
0.674957 -0.0581012 3.93696 60 56 59
-0.338778 0.0643149 3.41358 43 54 54
-0.051218 0.107822 3.3898 68 76 84
0.0788413 0.144755 3.34424 74 92 104
-0.433332 0.302502 3.43835 76 87 90
0.747629 0.332964 3.33648 22 74 108
-0.01621 0.48007 3.30113 130 143 142
0.41527 0.59164 3.48522 42 36 26
-0.796943 0.881161 3.72096 104 94 80
0.376487 1.02331 3.7154 184 186 172
-0.0753473 1.20482 3.70801 89 76 56
0.123733 -0.528248 3.44071 146 143 140
0.313812 -0.390014 3.5277 210 220 230
0.784653 -0.43425 3.92019 126 124 107
0.395193 -0.33621 3.52979 106 114 118
0.707485 -0.0405397 3.88842 58 46 54
0.700208 -0.0209663 3.8954 93 86 88
-0.342644 0.0672841 3.44257 35 44 46
0.00518204 0.486365 3.36088 132 148 152
-0.0176512 0.500041 3.3586 138 152 156
0.0300994 0.50015 3.33426 56 62 64
0.569717 0.499809 3.29459 146 142 140
-0.0630112 0.508541 3.35314 40 48 38
0.622498 0.5113 3.31504 96 106 102
0.373386 1.03152 3.72282 180 184 174
-0.829056 1.39667 3.86472 77 86 105
0.117353 -1.05424 3.50099 152 109 140
0.35694 -0.462499 3.51529 44 56 75
-0.00764983 -0.255954 3.31316 164 175 170
0.764568 0.299222 3.37497 72 121 142
-0.442294 0.306004 3.48655 69 82 86
0.60906 0.55589 3.36055 214 222 226
0.144041 -1.00643 3.50689 80 48 64
0.31812 -0.653503 3.55706 188 200 198
0.250891 -0.580547 3.57966 152 151 138
0.311228 -0.38796 3.49162 202 210 224
-0.0228432 -0.251253 3.35056 153 169 172
0.887333 -0.177849 3.98171 134 91 97
-0.235657 -0.0419561 3.22253 170 181 184
0.680658 -0.0565544 3.98518 67 64 66
-0.0229168 0.174923 3.32681 44 54 61
-0.0664777 0.514552 3.45653 42 42 40
-0.925548 0.817424 3.94947 34 28 23
-0.0331853 -0.420008 1.94962 82 61 74
0.39394 -0.960454 5.73192 146 132 144
-0.0965592 -0.258272 3.32961 132 142 139
-0.850888 -0.171282 3.83164 72 58 47
0.69851 0.069307 3.90125 87 102 122
0.50153 -0.243905 3.38775 138 130 132
0.334177 -0.000187196 3.43156 68 75 60
0.712004 1.54215 12.5527 40 38 23
0.687156 0.698501 3.98893 62 71 64
0.256935 -1.07546 3.52291 168 140 137
-0.396835 1.07832 3.70469 89 82 60
0.13977 -0.609351 3.58055 190 198 198
0.197008 -0.500864 3.51928 80 93 108
0.194069 -0.486268 3.50919 100 106 118
0.81234 -0.459833 4.10002 168 172 163
0.00737343 -0.293765 3.29074 38 28 15
-0.128427 -0.243858 3.33632 171 178 186
0.712873 0.071628 3.95257 94 108 126
-0.0279139 1.30528 3.80025 95 99 110
0.531121 -0.149326 3.39573 242 250 255
-0.876907 0.0975273 4.31674 173 163 142
0.476803 0.650236 3.52119 158 147 154
0.360294 -0.49275 3.68834 54 59 78
-0.73282 -0.516087 3.90826 50 32 16
-0.745324 -0.0109834 4.00809 178 173 157
0.477706 0.655476 3.58059 139 127 126
0.0491976 1.28227 3.7136 44 37 26
0.414676 -0.771017 2.60714 116 72 92
0.0900967 -1.05103 3.52253 132 90 117
0.0894979 -0.88813 3.56444 96 68 86
-0.104308 -0.829326 3.49234 149 89 112
0.0410923 -0.822281 3.51457 119 50 64
0.0778723 -0.835367 3.60772 155 122 131
-0.140493 -0.785284 3.50706 149 104 122
-0.0613424 -0.798202 3.55169 162 157 158
-0.0194984 -0.796799 3.58623 164 181 179
-0.0671335 -0.790782 3.56527 145 156 152
-0.0446259 -0.788312 3.58517 130 148 141
-0.0962955 -0.690193 3.5335 20 22 12
0.12708 -0.679643 3.53612 122 122 122
0.16858 -0.607774 3.56981 230 236 240
0.334087 -0.606461 3.62956 62 69 56
0.364864 -0.5622 3.60125 53 58 41
0.759297 -0.483246 4.04632 130 136 124
0.673143 -0.42015 3.82202 116 97 110
0.864159 -0.39977 4.08372 106 105 100
0.715971 -0.269609 3.73411 107 70 93
0.680411 -0.0434478 3.94502 92 98 100
0.590839 -0.0127944 3.71862 80 84 85
0.582971 -0.00718565 3.69142 160 164 165
0.691329 -0.00675673 4.02159 129 135 138
0.713088 0.00931827 4.01548 154 152 148
0.566908 0.019896 3.71287 71 82 78
0.320505 0.0377397 3.49893 90 92 88
0.213855 0.048884 3.47401 120 132 132
0.381276 0.058351 3.49267 76 78 70
0.781334 0.48934 3.61608 166 161 152
0.67229 0.482614 3.33173 7 58 93
0.727122 0.516832 3.47494 58 96 111
0.666518 0.509706 3.32728 104 128 138
0.588151 0.537391 3.28979 228 232 239
0.609897 0.58662 3.35562 140 138 129
0.636128 0.604604 3.38353 108 108 100
0.257542 0.783949 3.7809 120 108 66
0.265038 0.787915 3.78167 168 156 116
0.242711 0.800734 3.77536 120 108 66
-0.623075 0.792887 3.71975 54 58 50
-0.78997 0.855687 3.74033 54 46 24
0.362138 0.944956 3.89367 162 146 103
0.34097 0.989316 3.70836 124 112 76
0.356674 1.01821 3.70386 154 158 154
0.350185 1.02789 3.69035 210 208 208
0.0821449 1.06982 3.7041 148 136 104
-0.272287 1.09397 3.78715 117 110 82
0.529138 1.35395 4.38502 99 109 122
0.499749 1.37397 4.35063 87 90 96
-0.0666254 1.27841 3.86727 84 82 68
0.223778 1.48039 3.88591 91 120 163
0.202216 1.49016 3.90546 88 117 158
-0.474831 1.48593 3.88606 58 87 128
0.172917 1.5342 3.88841 88 118 159
0.143507 1.55167 3.90335 70 102 148
0.0774539 1.56437 3.8665 76 112 161
-0.463439 1.68031 3.77217 95 133 180
-0.486427 1.70279 3.79739 98 134 186
-0.221238 -0.821153 3.41305 84 37 61
-0.107294 -0.83008 3.49821 144 84 109
0.338461 -0.71087 3.62102 76 64 52
0.361377 -0.568456 3.62952 68 73 56
0.794816 -0.372357 4.06209 228 226 237
0.741842 -0.298682 3.86438 146 116 128
0.674626 -0.0456993 3.99579 98 104 106
0.725286 -0.0187433 3.99146 67 54 59
0.273992 0.0127924 3.44027 55 60 56
0.563901 0.0106752 3.76528 92 102 98
0.377646 0.057702 3.50638 84 84 76
0.729015 0.513855 3.43308 44 88 111
0.618016 0.530216 3.33134 123 128 118
0.609309 0.598918 3.37853 107 104 90
-0.809698 0.896412 3.75813 107 102 86
0.287179 0.914315 3.78515 154 136 93
0.346039 1.03162 3.71129 188 186 186
0.476143 1.31257 4.31683 74 79 76
0.44576 1.38518 4.21691 51 54 60
0.358322 1.42286 4.17568 38 44 56
0.345239 1.42982 3.99744 73 88 108
0.234722 1.44714 3.83373 102 120 153
0.225814 1.47846 3.88709 90 118 160
-0.125523 -0.901178 3.39744 124 84 106
-0.205875 -0.781425 3.4237 103 53 78
-0.156172 -0.772457 3.485 122 72 92
0.0232369 -0.776477 3.58924 78 88 74
0.176916 -0.773548 3.64695 90 96 71
0.163899 -0.762769 3.63726 143 151 133
0.620119 -0.503602 3.64648 139 107 128
-0.374368 -0.465382 3.47939 124 132 116
0.757909 -0.500796 4.05926 101 108 88
0.793966 -0.42328 4.0838 80 82 64
-0.716828 -0.0873927 3.67725 69 50 33
0.606814 -0.037299 3.72647 72 80 82
0.716947 -0.0191749 4.02697 71 59 61
0.22992 0.0326268 3.48886 112 122 121
0.326814 0.0393035 3.48793 88 89 84
0.217997 0.053512 3.4641 115 126 128
0.700635 0.056796 3.8766 48 60 72
0.0736439 0.230459 3.36414 48 60 65
-0.02411 0.412382 3.36163 70 84 84
0.0243436 0.475518 3.33912 102 113 114
0.622802 0.522881 3.32544 70 78 68
0.695556 0.545519 3.42299 144 176 190
0.704772 0.556903 3.47953 163 178 174
0.572103 0.547422 3.27669 116 108 108
-0.641582 0.75949 3.7033 106 110 110
-0.805541 0.89202 3.74476 100 94 78
0.200846 0.941315 3.741 101 89 62
0.336077 1.03341 3.689 188 176 156
0.470391 1.32081 4.33477 89 94 90
-0.0654004 1.27836 3.8636 78 76 61
0.447812 1.38723 4.21699 48 50 56
0.364927 1.40121 3.97156 64 72 90
0.239036 1.44588 3.82816 86 106 138
0.156929 1.73726 3.90225 78 111 157
0.0959044 1.74853 3.84778 71 106 153
0.0962748 -0.811435 3.6416 181 198 190
-0.356568 -0.571728 3.47936 113 62 88
0.477019 -0.585337 3.57698 94 64 73
0.503372 -0.548807 3.58569 112 74 84
0.786387 -0.439177 4.05453 205 205 200
0.786976 -0.417747 4.07147 68 68 50
0.663041 -0.0776831 3.8804 112 114 118
0.669908 -0.0508759 3.93426 70 76 81
0.68659 -0.0284338 3.98034 126 137 136
0.572429 0.0111537 3.72338 82 92 88
0.233102 0.0355732 3.47242 118 130 128
0.406891 0.0718969 3.50572 91 102 99
-0.0508495 0.102774 3.40349 72 76 76
0.78494 0.490444 3.60704 168 162 151
-0.106541 0.477973 3.33259 57 66 60
0.684038 0.527268 3.41171 83 121 146
0.631434 0.607349 3.40595 112 111 98
-0.651848 0.810396 3.71966 175 180 174
-0.807409 0.894886 3.75257 104 98 82
0.319119 0.908116 3.74929 170 154 124
0.334732 1.0116 3.72437 162 164 142
0.376999 1.03089 3.71861 187 190 176
0.344784 1.03251 3.70443 191 186 183
-0.389686 1.11239 3.77528 60 50 26
0.31074 1.12246 3.7029 120 114 94
0.532748 1.3259 4.44457 132 140 147
0.529922 1.33945 4.38703 106 116 128
0.457827 1.37271 4.27955 72 76 77
0.362939 1.41456 4.13969 42 48 60
0.360125 1.44355 4.07498 48 58 69
-0.129626 1.50256 3.99005 58 69 86
0.81428 -0.463661 4.0611 170 176 167
0.773873 -0.435087 4.02459 194 195 186
0.794848 -0.420866 4.05413 85 86 70
-0.700347 -0.0457254 3.69472 114 100 84
0.328588 -0.0151147 3.43378 188 196 197
0.273028 0.0175423 3.44337 50 53 44
0.28976 0.0440669 3.44589 26 36 35
0.541288 0.0555607 3.6476 65 72 80
-0.147612 0.471432 3.35849 36 36 20
0.692375 0.558259 3.44819 154 168 164
0.67274 0.553495 3.33819 214 220 224
-0.690537 0.742689 3.69656 80 78 62
-0.651288 0.790456 3.68826 174 182 178
0.115378 1.03106 3.72453 112 98 72
0.446775 1.08704 3.78233 196 181 156
-0.473341 1.28213 3.70991 70 90 136
-0.446888 1.33641 3.77197 50 61 86
0.199414 1.51611 3.8461 21 44 82
0.0813874 1.58394 3.86815 52 86 128
0.0213086 -0.606072 3.50423 165 169 170
0.724032 -0.611471 3.87793 227 228 235
0.782673 -0.414358 4.04498 68 68 51
-0.791687 -0.133949 3.84502 124 108 92
-0.648416 0.0028354 3.64314 132 120 106
-0.361617 0.271549 3.44769 74 88 95
0.792898 0.487117 3.56843 170 162 150
0.659918 0.594114 3.36541 162 166 174
-0.796693 0.857197 3.74032 75 68 46
-0.812978 0.889414 3.76396 91 86 68
0.31589 0.915121 3.77394 184 170 138
0.490968 1.35496 4.44726 116 124 120
-0.0883719 1.25663 3.8112 26 20 11
-0.477101 1.32941 3.87323 57 90 140
-0.143392 1.50411 4.01807 56 64 82
0.232071 1.45632 3.85668 133 157 193
0.224028 1.65347 4.09218 62 99 145
0.254449 -0.745984 3.64114 52 48 29
0.0693668 -0.62778 3.49582 178 180 180
0.658214 -0.528835 3.86628 152 161 145
0.149464 0.0714503 3.44287 177 191 186
0.579765 0.0923216 3.71878 98 114 122
0.0809654 0.308917 3.37464 144 166 184
-0.119754 0.443998 3.40848 104 122 124
-0.0782554 0.504448 3.4304 82 93 92
0.562947 0.560866 3.33715 122 115 114
-0.407073 1.14218 3.82702 64 54 36
0.409948 1.43532 4.16435 122 134 134
0.0666983 1.36533 3.80019 86 97 108
-0.457069 1.5165 3.87342 58 96 144
-0.639832 -0.731875 3.78544 58 44 26
0.0201674 -0.632022 3.48227 186 190 197
-0.0742016 -0.603698 3.50931 72 74 52
-0.352681 -0.525882 3.52413 145 147 148
0.672425 -0.455225 3.77682 166 148 146
0.750953 -0.424941 3.78401 132 136 116
0.728342 -0.0251726 3.9457 46 33 40
0.276537 0.0190311 3.43072 56 60 53
0.0325098 0.0920145 3.35682 118 130 122
0.0772943 0.305494 3.38294 141 162 181
-0.662015 0.793158 3.73263 167 172 171
0.207572 1.00635 3.6768 102 88 56
0.0439001 1.1218 3.70531 98 82 51
-0.511491 1.42651 3.89206 30 52 88
-0.408101 1.43636 3.92467 44 45 46
-0.128908 1.49104 3.94552 57 69 90
0.184476 -1.65108 4.10185 79 40 40
0.193188 -1.63264 4.12006 144 95 114
-0.178563 -0.848497 3.37885 155 100 128
-0.113845 -0.842326 3.46046 136 84 108
-0.16574 -0.783497 3.45599 124 80 106
-0.227454 -0.757914 3.41037 120 74 98
0.755447 -0.622517 3.90122 240 248 253
0.528504 -0.491366 3.62104 116 70 84
-0.322033 -0.475076 3.53608 70 65 52
0.770366 -0.479823 4.04025 132 142 130
0.774999 -0.413466 4.07601 34 34 17
0.711428 -0.295682 3.13693 62 51 42
0.70851 -0.289633 3.69732 107 70 88
0.772709 -0.277541 3.78496 200 192 189
0.786822 -0.279305 3.8805 216 210 217
0.773694 -0.266757 3.82939 97 75 90
0.742747 -0.0235607 4.0137 43 26 39
0.691079 0.024879 3.98698 47 54 53
0.294167 0.0333003 3.48026 102 108 106
0.641205 0.52383 3.32562 156 156 142
0.650827 0.563848 3.31953 191 190 198
0.267023 0.779006 3.79761 122 108 74
0.198276 0.9455 3.73578 104 92 70
-0.82939 1.29934 5.11713 80 68 34
-0.304738 1.00333 3.78 94 86 70
0.362573 1.04943 3.76143 168 170 155
0.359132 1.04603 3.71749 145 142 129
0.243332 1.08074 3.66513 134 118 79
0.520778 1.30751 4.38696 56 67 64
0.439244 1.41619 4.25871 36 40 46
0.487187 0.881825 2.12113 68 84 109
0.14511 1.55632 3.89135 64 96 147
0.0965423 1.75361 3.84862 82 110 152
0.121254 1.72846 3.78922 87 119 164
0.184019 -1.6502 4.09314 94 60 56
0.797869 -0.491177 4.05932 216 223 221
0.763451 -0.433421 4.0716 166 168 143
0.716249 -0.330616 3.90718 104 90 87
0.518892 0.0764186 3.56945 148 161 161
0.155869 1.2563 3.75339 129 122 92
0.755041 -0.634961 3.94599 238 246 252
0.76371 -0.468455 4.07117 205 212 211
0.713322 -0.0284249 3.88071 86 78 80
0.437955 1.10333 3.84288 200 190 162
-0.446054 1.52165 3.86268 58 88 132
0.286678 -1.6056 4.19282 120 64 76
-0.246517 -0.782612 3.39079 141 88 121
-0.0873149 -0.717504 3.51298 126 121 118
0.351753 -0.572692 3.64703 78 78 64
-0.366241 0.275527 3.45503 68 78 82
0.10947 0.400873 3.37436 125 142 146
0.713261 0.540008 3.4147 142 163 160
0.121395 1.02666 3.7195 100 90 62
0.37451 1.03898 3.72316 176 175 156
0.505105 1.25908 4.52018 68 68 64
0.438127 1.10326 3.83846 200 188 160
0.339438 1.4611 4.10282 58 68 77
-0.495866 1.42356 3.86497 68 86 126
0.745047 -0.396972 4.02556 32 28 19
0.159929 0.0691318 3.4494 162 176 168
0.422707 0.0807618 3.49199 148 160 158
0.53132 1.20197 4.61988 126 130 120
0.0949321 1.52437 3.86445 56 80 118
0.142996 1.7464 3.91621 84 120 170
-0.22483 -0.693212 3.53227 138 130 134
0.0198968 -0.642964 3.51049 178 184 188
-0.327367 -0.589954 3.51551 82 64 68
0.746286 -0.519365 3.97417 201 220 234
0.791416 -0.371129 4.03453 212 213 218
-0.235991 0.381269 3.43433 68 78 76
-0.0159356 0.410099 3.3839 116 138 142
0.210473 0.931986 3.72904 104 96 66
0.49481 1.36187 4.3404 74 80 82
-0.46715 1.52971 3.90019 52 84 132
0.319384 -0.65752 3.62503 188 209 210
0.355137 -0.612187 3.61855 169 176 162
0.273764 -0.585674 3.5516 144 149 129
0.743006 -0.492246 3.96826 153 162 134
-0.00791774 0.412162 3.35106 119 140 142
0.666652 0.551247 3.357 196 202 206
0.325334 1.02927 3.80788 157 154 126
0.080526 1.58615 3.87022 42 72 113
0.0297301 -0.806294 3.55679 93 34 42
0.318109 -0.659041 3.62943 195 214 212
-0.173807 -0.550686 3.44735 90 96 100
0.495842 0.0691782 3.57721 172 184 182
0.274779 0.951491 3.70282 89 78 60
0.273332 -1.64274 4.12444 98 73 86
0.0311134 -0.838426 3.60713 135 66 81
-0.00529511 -0.791606 3.57131 172 190 186
-0.165299 -0.702525 3.48517 104 110 92
0.656558 -0.25984 1.95344 106 83 80
0.793505 -0.371745 4.06555 230 232 240
0.771482 -0.247385 3.75219 144 97 134
0.797174 -0.249078 3.76299 146 116 142
0.578018 0.0033604 3.71235 61 70 67
0.778327 0.284465 3.36281 42 91 118
0.687166 0.525271 3.36776 88 114 134
0.16296 -1.67184 4.15345 147 120 113
0.759348 -0.485889 4.05446 119 128 114
0.765028 -0.466322 4.07351 212 222 218
0.813816 -0.443277 4.07116 142 142 126
0.795915 -0.25716 3.79133 136 112 130
0.687428 -0.0413341 3.97875 92 85 88
-0.0138054 0.4931 3.31938 134 154 158
0.762549 -0.435349 4.08857 171 175 154
0.674857 -0.0527822 3.95148 58 64 68
-0.380522 1.10682 3.75156 70 64 37
0.526667 1.35434 4.40297 96 108 114
1.01143 -0.752082 4.135 220 214 208
0.745842 -0.64595 4.01063 237 249 252
0.757592 -0.506967 4.06684 76 88 58
0.765703 -0.439247 4.09048 182 187 170
-0.187616 1.04402 3.82161 62 54 28
0.285177 -1.6413 4.1472 87 73 78
0.28731 -1.61522 4.21749 124 68 78
0.129817 -0.804403 3.64506 68 76 63
-0.351377 -0.530493 3.48238 109 96 94
0.694636 0.0209121 3.9241 54 66 70
0.703307 0.0537601 3.79754 77 89 102
0.330358 1.06899 3.85069 172 166 160
0.507579 1.24298 4.48165 70 72 60
0.207781 -1.66945 4.09794 172 150 134
0.287024 -1.64023 4.12868 96 77 84
0.156652 -1.6146 4.11651 64 33 33
0.283381 -1.59918 4.19729 120 56 70
0.516274 0.0692801 3.50715 163 176 177
0.531656 1.33987 4.38133 92 104 111
0.270762 -1.59891 4.20666 110 39 63
-0.6775 -0.68839 3.91608 42 31 20
-0.766485 0.654526 3.80241 78 60 42
-0.890327 0.800314 3.83264 50 42 31
0.352206 1.0111 3.71158 174 170 150
-0.387181 1.18458 3.84642 46 45 34
0.524435 1.34669 4.40395 94 107 114
-0.819329 1.39725 3.85203 71 76 87
0.79939 -0.211291 3.7676 148 92 126
-0.0339292 0.195352 3.38222 76 90 94
-0.708065 0.765251 3.70421 72 68 54
-0.459255 1.50645 3.8607 50 88 134
0.061946 1.54796 3.92076 46 70 112
-0.106193 -0.705367 3.51609 146 146 142
0.606782 -0.513075 3.60513 85 53 73
0.741311 -0.466688 4.14792 134 138 122
0.752063 -0.621058 3.91403 238 244 254
0.494949 -0.548863 3.61152 93 56 66
0.82274 -0.249827 3.83282 210 203 200
0.467386 0.0873958 3.50896 110 130 132
0.0102509 0.483592 3.29806 128 153 161
-0.814477 1.40172 3.85676 69 78 87
0.517055 -0.531285 3.58059 87 53 66
0.728778 -0.531028 3.91218 134 150 150
-0.174285 -0.837241 3.42378 83 31 56
0.00715298 0.484573 3.3009 125 152 160
-0.0151597 0.485812 3.29556 138 158 164
0.194607 -1.64345 4.04249 168 151 136
-0.245659 -0.780499 3.38958 150 98 132
-0.211323 -0.562323 3.46341 84 85 89
-0.785498 1.37606 3.7743 78 86 96
0.721197 -0.359062 3.92709 135 135 128
-0.386887 1.11809 3.77411 68 64 38
0.0996811 -1.09426 3.45657 120 91 93
0.10684 -1.09085 3.45736 136 100 104
0.110295 -1.07793 3.54356 175 134 156
-0.166716 -0.835604 3.41587 68 17 44
0.302368 -0.628287 3.58325 218 226 219
0.550037 -0.331966 2.17805 98 80 80
0.687503 -0.41474 3.83055 212 203 198
0.545328 0.047166 3.64055 68 76 82
-0.0356613 0.498521 3.301 42 48 44
-0.0283519 0.502064 3.33217 136 154 162
0.575813 0.553147 3.28237 132 132 134
0.322169 0.772366 3.29386 120 110 92
0.538928 1.29336 4.38991 136 144 156
0.113641 -1.03142 3.45536 154 117 141
0.609762 -0.0247004 3.65492 71 82 87
0.325404 0.0381161 3.4762 94 99 102
0.712283 0.0351596 4.01528 152 155 150
-0.445071 0.285118 3.45985 32 48 52
-0.471956 0.32127 3.52504 63 67 68
0.712132 0.509396 3.34722 44 80 104
0.671575 0.518184 3.34947 158 178 184
-0.652997 0.732306 3.71688 114 119 118
0.263233 -1.03979 3.39054 113 75 86
0.488341 -0.548573 3.64384 92 56 68
0.758917 -0.510846 4.05538 108 120 104
-0.448479 0.286147 3.46416 40 54 56
0.00307647 0.483341 3.32637 130 154 160
-0.04046 0.500851 3.31937 48 56 50
0.0242535 0.501619 3.32861 41 46 44
-0.0606852 0.506944 3.32482 36 44 42
0.675022 0.516714 3.32852 152 172 180
-1.27032 1.37272 4.31559 64 61 56
0.186588 1.54571 3.91934 6 37 78
0.125875 -1.05777 3.46635 140 98 118
0.0899405 -1.04014 3.53143 124 80 104
-0.601963 -0.570248 3.77352 94 76 62
-0.449152 0.28643 3.46191 36 49 52
-0.462701 0.317072 3.50536 66 70 72
-1.12884 1.01301 3.89407 72 67 58
-0.602655 -0.573983 3.77722 97 80 65
0.714956 -0.336621 3.65586 160 122 142
0.00956207 0.477554 3.31487 121 144 147
-0.0614583 0.503273 3.32991 38 48 45
-1.21854 1.08382 4.07 106 102 93
0.287298 1.53634 4.0827 82 104 138
0.79076 -0.275437 3.88496 186 191 188
0.581841 0.0878973 3.68952 100 116 124
-0.0970039 0.4442 3.35099 100 123 130
-0.0169738 0.483343 3.3036 134 160 169
-0.713749 0.78839 3.72324 79 76 64
0.272696 0.967452 3.75517 82 71 47
0.117045 1.03122 3.7147 118 106 80
0.491506 1.34325 4.32306 68 74 77
0.878189 -0.1017 4.05991 127 94 100
-0.231811 0.373005 3.43279 78 90 92
-0.112913 0.376762 3.31958 71 81 82
-0.120648 0.418584 3.34601 53 64 59
-0.0264522 0.489474 3.33468 130 154 167
-1.21173 1.07676 4.05477 110 106 97
0.354549 1.28328 3.96028 40 42 36
-0.665217 -0.6836 3.8891 36 27 15
0.831473 -0.2294 3.72556 118 80 94
-0.0220401 0.415039 3.38244 98 122 126
-0.893669 0.798681 3.83578 46 38 30
-0.725598 0.831673 3.71479 124 121 116
-1.24657 1.25611 4.09513 80 76 67
-0.0614879 -0.966456 3.41072 72 49 80
0.13412 -1.00145 3.5509 32 14 20
0.493367 -0.681031 3.83372 82 55 70
0.553104 -0.67153 3.94748 138 102 112
0.644228 -0.510415 3.7393 180 175 167
0.70872 -0.427617 3.74557 53 57 41
0.81608 -0.443554 4.07878 136 136 120
