ply
format ascii 1.0
element vertex 1360
property float x
property float y
property float z
property uchar red
property uchar green
property uchar blue
end_header
6.30686 0.266272 18.0239 78 34 24
6.51128 0.270568 18.0459 94 53 34
6.99218 0.296816 18.0019 64 41 38
6.60835 0.304642 17.9818 140 110 100
6.01276 0.3312 18.3755 174 130 108
-4.99715 0.133572 18.2142 109 50 30
-4.51437 0.18542 18.2251 111 62 48
6.14008 0.532122 18.247 200 170 150
-4.45202 0.316118 18.2926 58 14 4
5.1344 0.588631 20.1319 29 16 4
-3.41885 0.521814 20.847 162 112 88
4.34658 0.768664 21.1777 116 92 64
7.64683 0.902919 18.8725 50 26 13
5.80863 0.921555 18.7936 119 76 56
4.95499 0.969889 20.498 160 117 93
6.40319 1.02172 18.478 184 158 139
6.39937 1.09146 18.5405 62 39 22
6.57753 1.31105 18.8603 38 21 10
7.82214 1.36117 18.7994 77 59 47
7.66581 1.59484 19.0556 196 176 164
-7.20889 1.2986 17.167 128 22 11
4.61468 1.77716 19.7987 150 91 68
4.41145 1.97137 19.9696 161 112 90
0.0653426 1.93015 17.2617 116 67 48
6.56779 2.36339 18.368 163 120 100
7.45456 2.40864 18.3077 144 110 94
7.64117 2.52897 18.3535 190 156 140
7.57363 2.58793 18.3813 160 132 112
7.94506 2.62015 18.5113 163 142 135
7.56889 2.68406 18.551 191 160 142
4.88381 2.72292 19.4826 124 98 94
7.50033 2.7469 18.4075 146 112 98
-2.89455 2.69262 20.6715 184 130 108
4.54968 2.89829 20.2823 44 24 14
7.82262 3.00485 18.6286 73 44 32
5.82329 3.04132 18.7545 153 94 80
5.93469 3.0721 18.8456 126 52 46
-2.92719 3.01765 20.5035 204 150 118
6.98265 3.08821 18.5639 134 60 50
5.59642 3.2472 19.0103 134 92 90
6.0316 3.20613 18.6469 178 108 81
6.30524 3.24169 18.6438 198 137 104
0.411432 2.78483 16.5254 84 74 58
7.4797 3.32868 18.7359 92 73 68
5.7571 3.38625 18.9592 164 134 130
-5.28971 3.19455 20.1805 146 97 76
5.81629 3.39369 18.8953 64 38 31
5.88753 3.47921 18.9578 46 26 21
7.32624 3.52591 18.663 146 118 108
6.12245 3.53272 18.7305 78 56 50
-1.48197 3.19108 18.0449 157 130 118
6.22127 3.56338 18.7177 46 28 25
-1.5438 3.2843 18.0485 112 84 74
-7.83777 2.91345 16.9877 114 32 21
-0.33921 3.18401 16.9319 96 81 74
-0.259444 3.164 16.7593 74 60 55
0.519785 3.19742 16.9016 168 148 141
0.747374 3.23016 16.7869 96 80 74
-0.591401 3.24023 16.9502 178 158 151
0.873264 3.43383 16.8523 196 182 179
0.628206 3.47542 16.7463 40 21 15
-8.21387 3.87814 17.7307 118 40 20
-0.288814 4.28596 17.9287 161 136 136
4.85617 -5.31691 19.5087 94 76 37
6.04167 -3.16286 16.1474 246 235 225
6.32096 -3.0666 15.745 201 180 172
4.63841 -3.19095 16.8176 146 99 76
4.74955 -3.03488 16.6994 149 115 98
-2.79523 -3.51793 19.8902 58 22 8
-2.70375 -3.5189 19.8887 80 42 29
-2.23424 -3.34926 19.8578 116 73 54
4.75951 -2.73519 17.0906 119 24 20
5.93763 -2.48741 16.2136 152 124 117
4.83881 -2.60242 16.9761 140 85 74
4.96937 -2.57475 16.7903 136 72 62
4.69255 -2.66344 17.3633 110 74 52
5.84931 -2.39262 16.2517 220 210 202
-6.44324 -3.01319 19.1169 55 30 16
-2.36924 -3.13806 19.8729 92 51 36
4.69754 -2.5846 17.2931 171 132 106
5.78155 -2.37269 16.3352 206 188 177
4.7655 -2.48995 17.3288 146 114 98
-6.17991 -2.88717 19.5225 128 90 60
-6.66761 -2.72626 18.8045 56 23 11
-7.32477 -2.62975 18.6209 158 108 82
-6.74785 -2.61548 18.6783 82 41 24
-3.10894 -2.77794 19.8309 104 28 12
-7.31642 -2.24919 18.7335 122 82 56
5.43403 -2.28487 20.07 164 150 104
-3.0739 -2.35786 20.551 116 90 56
-6.75335 -2.08433 18.8258 125 67 52
-2.33994 -2.27118 20.4695 131 82 56
-2.29653 -2.15406 20.3311 94 47 26
5.31709 -1.94816 19.5456 157 106 80
8.56737 -1.92864 19.6957 70 48 42
-2.81358 -2.19289 20.7349 199 144 114
8.44295 -1.85302 19.5243 20 11 4
6.1607 -1.42646 19.3043 94 92 50
-1.06418 -1.61296 20.3158 135 118 86
-7.87144 -1.28546 19.7359 152 103 80
-7.79034 -1.29602 19.7404 160 106 79
6.18797 -0.910307 17.9715 161 100 88
5.23194 -0.970796 19.404 160 120 101
6.29557 -0.803199 17.869 159 68 39
-3.13539 -1.00842 19.7646 126 80 49
-1.15109 -1.03022 20.3687 128 104 80
-1.24971 -1.01398 20.4139 39 14 2
-1.66433 -0.958952 20.1058 164 111 87
6.15962 -0.691973 18.2263 75 53 44
7.49912 -0.558351 17.7714 189 128 99
5.3139 -0.689321 19.6344 98 58 41
6.2777 -0.543729 18.0083 100 88 88
6.20968 -0.505342 18.2071 133 109 95
6.83967 -0.42052 17.834 48 20 12
4.86171 -0.509174 19.6883 149 113 90
5.07607 -0.445137 19.5105 49 12 3
6.3831 -0.31538 18.0555 89 84 86
4.70871 -0.434369 19.9273 138 109 82
-1.49821 -0.430995 20.6854 88 58 30
6.29609 -0.156653 18.4542 74 52 44
6.34366 -0.139454 18.142 44 34 36
7.37224 -0.137096 18.0889 178 142 122
6.44112 -0.1148 18.1568 22 14 18
-7.67429 -0.444186 19.8376 159 102 82
6.93384 -0.0401453 18.017 59 32 30
-3.50017 -0.267886 18.9229 116 70 52
6.03742 0.080907 18.2469 184 135 110
7.35376 0.191432 18.1609 122 72 50
-3.57025 -0.0232043 18.5303 80 28 12
6.00247 0.202968 18.3296 86 39 20
-4.81031 0.0254848 18.1384 96 43 25
6.00004 0.221443 18.08 72 25 10
6.60628 0.2427 18.0708 38 14 8
-7.71248 -0.0824724 19.9717 142 118 99
-3.80492 0.0433608 18.5484 180 122 103
6.20115 0.265982 18.1239 66 20 4
-4.68199 0.0623045 18.1123 158 108 94
4.65939 0.318858 20.1856 159 130 110
4.93711 0.416403 20.0576 162 128 108
-4.72623 0.263891 18.194 124 72 58
-6.80568 0.340121 19.7863 71 26 9
4.99377 0.638342 20.5629 114 80 46
4.76485 0.740449 20.4872 118 92 71
7.49023 0.849484 18.8443 118 98 79
5.98863 0.939066 18.8935 162 129 106
7.56312 0.966641 19.0103 20 12 6
6.2945 1.04483 18.5741 178 148 126
6.48313 1.19955 18.7681 164 136 119
7.6047 1.39705 18.9347 102 58 36
7.01637 1.51692 18.7424 122 104 88
6.43279 1.71833 19.0863 174 133 108
4.31251 1.86222 20.982 130 96 78
4.39145 2.16027 19.9705 120 35 22
0.060896 1.91736 17.2353 112 61 40
6.19924 2.1708 18.3987 173 124 103
5.34117 2.28478 18.8157 179 144 134
4.62483 2.38294 19.7432 158 100 98
6.61697 2.37019 18.4749 154 110 90
4.7264 2.44824 19.5979 172 142 134
6.74339 2.40762 18.3669 171 140 130
6.43541 2.49885 18.6101 173 140 129
4.85151 2.59165 19.4687 165 138 134
6.57759 2.54677 18.394 165 126 112
6.44209 2.56662 18.415 133 93 72
7.57984 2.67805 18.7239 166 133 117
7.72657 2.69979 18.4558 190 156 138
7.52713 2.745 18.4353 142 108 94
5.83518 2.91715 20.1203 234 218 212
7.88348 2.80905 18.5754 182 142 122
4.6338 2.92218 20.0998 131 124 112
4.58388 2.97362 20.2815 36 15 7
5.83628 2.91445 18.8549 168 133 122
4.58318 3.07754 20.3659 152 128 116
-3.90267 2.87996 20.9386 158 107 83
7.65428 2.9824 18.626 68 38 28
7.82852 3.00425 18.638 50 22 8
-4.23466 2.94781 20.9868 93 60 52
5.72263 3.03923 18.9694 160 106 106
6.3556 3.01687 18.5061 116 114 104
5.61606 3.06961 18.9453 159 114 109
-3.285 3.09631 21.1147 212 159 125
5.61387 3.26174 19.0508 122 78 78
-0.0312106 2.76772 16.5307 60 42 30
7.50683 3.32844 18.7563 56 38 32
7.59754 3.3667 18.7412 46 31 20
5.68675 3.3531 19.0087 56 20 16
6.29046 3.34981 18.678 192 140 98
2.01407 3.08526 17.6766 164 148 142
5.83673 3.45166 18.9353 38 16 10
-1.62792 3.0708 17.9876 180 160 153
6.10565 3.49686 18.8428 137 104 99
-7.45046 3.26143 20.3216 157 106 80
0.186892 2.98673 16.6567 47 34 18
7.37779 3.55784 18.8398 152 124 114
-7.19761 3.26556 20.1164 194 142 114
1.90869 3.28189 18.0173 126 109 98
6.13888 3.53557 18.6304 25 10 8
6.27624 3.56875 18.7706 34 19 17
-0.485695 3.10439 17.022 197 170 160
-0.367521 3.15148 16.777 79 64 58
-0.25872 3.16142 16.7785 89 75 70
-0.16942 3.24439 16.9174 96 82 80
0.610087 3.43462 16.8093 40 20 12
0.812203 3.47638 17.0394 51 32 22
0.875583 3.46117 16.899 196 182 179
0.680224 3.48405 16.7915 36 21 12
0.317449 4.34999 18.2304 100 21 16
-0.499506 4.28249 17.996 204 170 164
-0.227306 4.41435 17.9134 96 70 71
-0.538434 4.69202 18.1077 140 107 100
4.33851 -3.96992 18.3089 93 65 32
6.01137 -3.14065 15.8995 202 178 168
4.85739 -3.33002 16.6834 106 10 3
4.68325 -3.09269 16.8962 110 66 44
4.97339 -2.91894 16.5224 122 80 61
4.43144 -3.11144 17.5089 100 87 73
-2.37178 -3.59852 19.9186 100 62 44
4.84239 -2.60802 16.986 140 85 74
5.02122 -2.58925 16.874 142 79 70
-3.33781 -3.29267 20.5302 156 107 81
-2.864 -3.14945 19.8589 95 40 20
-2.09347 -3.1425 19.8852 98 59 44
5.70416 -2.3624 16.3142 113 90 79
-7.28752 -2.82048 18.6459 140 96 72
-6.56625 -2.80445 18.7235 91 55 40
-7.15251 -2.71155 18.5743 155 108 86
-6.15464 -2.85372 19.4097 140 100 70
-7.405 -2.53438 18.4943 59 27 14
-7.40098 -2.27729 18.8583 152 108 85
-1.21103 -2.31112 20.3877 86 72 30
-2.32541 -2.25812 20.1735 128 79 54
5.91904 -2.11153 19.9956 98 54 21
-7.31896 -2.01904 18.7597 111 72 52
-2.86115 -2.15865 20.3756 158 100 70
-2.29686 -2.15211 20.3541 90 42 22
-6.10748 -1.98075 19.9663 50 14 4
-0.976362 -1.76979 20.349 84 61 24
-5.9371 -1.72734 19.7479 54 17 5
-1.05199 -1.62104 20.3527 118 102 68
-6.7591 -1.49358 19.5718 188 129 100
-1.4579 -1.3359 19.9853 166 116 93
-1.668 -0.962462 20.2201 150 98 76
6.31481 -0.653256 17.9981 102 95 97
6.35615 -0.54628 18.1434 112 101 100
4.86208 -0.509471 19.6581 164 130 109
-1.32333 -0.643492 20.516 98 55 29
6.16089 -0.350078 18.2971 52 32 23
6.41745 -0.322715 18.1359 116 110 112
-7.86603 -0.63157 19.5327 90 48 21
-1.4341 -0.589116 20.7443 164 147 121
-7.31569 -0.571398 19.7322 96 50 36
-7.95507 -0.547218 19.8017 174 144 113
6.31674 -0.147652 18.5417 82 58 48
7.38502 -0.123652 18.0814 179 144 124
-7.66524 -0.432041 19.771 152 94 75
6.97717 -0.0906009 17.9097 56 17 9
7.16309 -0.0634384 18.0015 140 82 58
6.59841 0.0860847 18.1356 40 16 11
6.57677 0.216741 18.0326 44 19 15
-5.10336 -0.0262343 18.2623 168 108 85
-7.62218 -0.109549 19.997 41 11 2
6.16174 0.233637 18.4095 68 22 8
6.36972 0.235273 18.085 80 42 30
-7.72436 -0.0702848 19.9642 142 118 99
6.22001 0.26258 18.1497 82 34 18
-4.99273 0.114073 18.2037 118 59 40
-3.73528 0.158366 18.5327 107 48 31
6.34253 0.399791 17.9656 182 152 137
7.13467 0.408745 18.1095 170 138 121
-4.7059 0.251223 18.1439 104 54 42
6.88659 0.610793 18.7709 100 63 39
7.61188 0.867766 18.7589 36 16 7
5.98291 1.00192 18.9312 47 20 6
6.48456 1.00477 18.546 68 48 38
7.01748 1.52344 18.7638 123 104 88
7.68005 1.59337 19.0641 175 156 142
4.60273 1.80589 19.7989 148 87 62
4.39192 1.97375 19.9202 162 112 92
0.0636173 1.92841 17.3034 132 80 61
7.38644 2.3882 18.2112 149 118 102
6.76289 2.41421 18.3688 180 152 144
6.56941 2.4393 18.3161 108 62 40
6.39347 2.50329 18.5786 176 144 132
4.86959 2.59879 19.5239 167 140 136
6.76945 2.5838 18.3956 143 108 98
7.46786 2.65753 18.5523 144 114 100
7.48315 2.72922 18.375 148 114 98
4.56654 2.95323 20.2664 40 20 12
4.65603 2.93089 20.0882 136 126 116
5.86485 2.9304 18.9006 138 96 79
-3.89423 2.89719 20.9948 160 108 84
7.85251 3.0117 18.687 50 22 8
5.79807 3.00935 18.9539 182 153 146
5.66667 3.07764 19.0163 151 104 100
-2.91445 3.03545 20.5675 216 162 126
-7.22128 2.99093 20.2411 186 136 110
6.28116 3.25254 18.6385 194 141 98
-0.0246904 2.77719 16.5821 74 58 46
0.405254 2.79175 16.5266 70 54 40
0.509381 2.77203 16.4398 105 82 68
7.61615 3.37758 18.8025 33 21 12
6.30767 3.376 18.7694 192 144 102
-5.29476 3.21453 20.2514 147 98 76
-1.62643 3.07907 18.0212 184 165 160
5.87434 3.46019 18.9383 31 14 10
6.03839 3.48396 18.8417 163 132 126
6.14811 3.47337 18.7382 37 15 14
0.181418 2.98975 16.6369 65 50 36
7.3569 3.54787 18.7854 147 119 108
6.25929 3.56377 18.7485 30 16 16
1.29079 3.1576 16.9926 156 112 102
-0.48243 3.09909 17.0206 198 171 160
2.00149 3.34736 17.9774 104 80 70
-1.55015 3.25934 18.0231 104 76 65
-0.398616 3.25551 16.8193 172 156 150
0.554508 3.33834 16.814 148 132 126
0.670751 3.34643 16.6982 44 30 23
0.608184 3.42507 16.7622 45 26 19
-0.494505 4.31133 18.083 173 132 126
-0.518931 4.43159 18.0237 152 124 118
-0.64717 4.63157 17.8979 97 66 58
4.63459 -3.16559 16.947 116 81 65
-2.89559 -3.57634 20.1235 64 26 10
4.47711 -2.97699 17.7204 84 68 60
-2.2372 -3.36989 19.9204 103 60 43
4.77448 -2.73586 17.1109 120 32 26
-2.50225 -3.29936 19.9057 160 102 76
4.96389 -2.54337 17.001 34 12 7
-7.15314 -2.96428 18.8501 142 98 74
-6.4515 -3.01151 19.0933 83 52 34
-6.77333 -2.63235 18.781 82 42 26
-6.2829 -2.68741 19.1399 54 18 4
-1.33366 -2.65264 20.7937 132 122 80
-6.77432 -2.23323 18.7739 172 109 88
-1.22436 -2.33749 20.5708 76 60 22
-3.05869 -2.36007 20.8449 62 29 7
-2.12828 -2.16747 20.4028 114 64 46
6.23151 -1.79632 18.9023 111 102 84
-6.86164 -1.84427 19.0153 78 31 18
-6.83457 -1.77419 19.1651 151 93 76
-7.91987 -1.59187 19.702 124 113 77
6.41608 -0.970241 17.7777 132 33 14
-7.8065 -1.27791 19.601 168 114 89
-2.8949 -1.09764 19.7365 140 88 62
6.33125 -0.811191 17.9441 144 54 32
-7.97074 -1.07331 19.7041 157 143 122
-3.13466 -1.00053 19.7782 118 73 42
-1.14344 -1.01984 20.4008 149 130 104
-7.75264 -0.831374 19.5562 162 106 74
-7.93343 -0.809608 19.7962 177 130 100
-7.88767 -0.640082 19.5623 94 51 24
-7.85299 -0.534401 19.8644 54 22 12
6.1846 -0.160522 18.2826 86 62 50
7.36537 -0.127804 18.0743 173 129 110
6.07288 0.0475959 18.2692 181 136 110
6.41899 0.0943075 18.2334 177 152 140
6.06456 0.171066 17.9355 184 148 126
5.06621 0.127719 19.9177 139 104 82
6.07189 0.236624 18.3422 58 14 2
6.35267 0.244033 18.1377 91 51 36
-4.98945 0.0859066 18.2104 108 52 34
-7.57881 0.227723 20.1793 91 48 26
5.03564 0.509743 20.3568 34 16 5
-7.36117 0.263648 20.1236 136 112 92
7.52278 0.834943 18.5852 46 27 18
7.47435 0.973424 18.9437 15 14 12
7.42494 1.01135 19.0836 20 10 4
6.86088 1.21497 18.8585 68 34 18
6.55834 1.27507 18.6309 23 20 16
7.57022 1.38714 18.9251 104 60 38
6.3088 1.48626 19.0027 148 116 96
6.24982 1.72437 19.0826 106 60 34
0.397807 1.75087 18.7379 88 62 42
4.39374 2.18662 20.0591 116 39 30
4.54468 2.28731 19.8179 138 26 18
4.65538 2.40643 19.8339 163 109 108
6.38005 2.51203 18.6109 174 142 129
6.75131 2.58417 18.4138 150 110 93
6.45469 2.6245 18.4822 149 114 96
-2.89456 2.66483 20.6473 186 132 111
4.58603 2.95242 20.3618 40 19 11
7.6785 2.98314 18.6535 88 58 47
5.79934 3.01496 19.0244 180 154 147
-0.996737 2.66839 17.7275 157 96 86
5.22246 3.13175 19.4469 152 122 115
5.63316 3.09328 19.0166 160 112 106
1.88651 3.05197 18.2566 153 136 120
7.46713 3.33102 18.6847 61 44 39
5.64988 3.33573 19.0081 116 82 78
0.503697 2.96814 16.7413 94 58 44
6.03748 3.51743 18.9461 176 148 144
1.98732 3.3346 17.9508 105 80 68
-0.0215963 3.18617 16.923 139 117 112
-0.396809 3.26442 16.8312 151 134 128
1.20031 4.0776 17.4044 153 31 27
-0.311661 4.29409 17.9766 126 98 98
-0.25468 4.40313 17.8564 89 62 62
4.55063 -3.2984 16.9952 150 122 106
4.60753 -2.91322 17.2875 128 100 88
5.7059 -2.36124 16.3459 142 115 104
-7.27893 -2.80959 18.6273 138 92 68
-2.00492 -2.86776 20.0551 106 66 52
-2.39609 -2.2736 20.3263 128 78 56
-1.37005 -2.21057 20.4672 22 6 0
-1.21541 -2.2026 20.4936 68 50 18
-5.89832 -2.13907 19.6612 156 137 94
-2.32092 -2.15502 20.4321 92 46 25
-2.97271 -2.08688 20.4734 130 80 47
-1.03738 -2.03144 20.3272 90 70 23
6.94942 -1.68387 18.5104 98 84 69
-6.14958 -1.98079 20.0465 54 16 4
-6.83084 -1.7703 19.1424 143 86 68
-0.995974 -1.77285 20.2478 84 60 24
6.15307 -1.3771 17.6838 160 80 56
6.30067 -1.43467 18.9454 132 115 102
-1.20661 -1.65316 20.2828 32 12 6
-6.7656 -1.50729 19.6169 184 124 96
6.26756 -1.2307 19.0624 152 126 113
-1.28847 -1.04689 20.4178 30 8 2
-1.13778 -1.01716 20.4288 148 128 104
6.76947 -0.699832 18.0881 42 14 10
-7.87007 -1.03314 19.7447 61 32 21
6.18699 -0.493475 18.288 149 120 102
-7.90961 -0.798553 19.6853 192 144 114
4.91752 -0.532199 19.8929 138 102 78
5.1578 -0.451286 19.7523 64 26 16
-1.42736 -0.582933 20.7319 165 144 122
6.98568 -0.201325 18.1938 123 80 70
-1.53585 -0.434978 20.8144 88 52 29
4.7529 -0.23768 19.7518 114 74 46
-7.97332 -0.361987 19.8076 120 96 70
6.13218 0.0492724 18.3944 184 134 108
-7.58577 -0.117894 19.8281 35 7 2
6.37161 0.260567 18.375 94 46 32
6.11102 0.385541 18.5956 168 124 99
6.44297 0.413908 18.2468 181 156 140
4.70208 0.606565 20.4065 20 10 4
6.287 0.752308 18.3188 161 136 117
4.31846 0.770375 21.0306 128 105 78
-6.05725 0.867697 19.9819 173 126 99
4.394 1.37698 20.7817 163 134 120
4.36334 2.10993 20.351 172 142 127
6.12149 2.12932 18.1441 140 90 64
-7.76918 1.68568 16.4509 163 132 106
6.44109 2.24667 18.3101 98 56 32
5.64777 2.34196 18.8132 184 158 152
6.83062 2.41468 18.4828 174 148 140
6.35963 2.51949 18.5967 182 152 140
5.45355 2.56274 18.852 137 94 78
4.83081 2.73988 19.5173 102 76 76
6.66802 2.68697 18.4967 134 94 78
4.62685 2.93962 20.0914 148 130 122
5.75326 3.00566 18.9333 180 150 144
-3.32234 3.05086 20.9516 210 156 121
0.209904 2.70284 16.6709 42 16 8
1.42095 2.84463 17.1088 153 136 120
-0.0528017 2.83153 16.8014 88 56 44
5.64602 3.32928 19.0403 123 81 81
-7.22546 3.2564 20.0449 200 148 118
6.15486 3.5344 18.6849 31 14 14
1.15362 4.05145 17.3587 160 31 28
-0.319336 4.3137 18.0039 120 103 102
-0.545777 4.44069 18.0671 154 125 118
-0.277962 4.42412 17.8889 108 84 84
4.86759 -3.3852 16.7771 112 10 6
4.6276 -3.13344 16.8943 109 64 40
4.7621 -3.05955 16.7974 124 89 69
4.40474 -3.15279 17.6562 86 80 68
4.46764 -3.04657 17.9062 82 71 62
-3.42284 -3.16809 20.5836 46 22 10
-2.24424 -2.69557 20.0312 134 82 62
-1.35296 -2.66703 20.7823 114 102 62
5.51822 -2.18352 20.4196 109 70 29
-1.20651 -2.21976 20.5035 118 107 66
5.83211 -1.94805 20.0614 95 52 20
6.22499 -1.79592 19.0269 117 104 86
-6.10243 -1.92093 19.8423 58 23 10
-1.56958 -1.82185 20.3068 136 86 68
6.19551 -0.805278 18.0372 27 10 6
-7.91307 -0.833491 19.8786 159 104 72
-7.91648 -0.647508 19.5908 94 55 26
-1.42636 -0.578268 20.7875 130 108 84
4.80956 -0.25645 19.9354 110 70 44
6.56296 0.201338 18.0518 60 30 22
6.41526 0.243048 18.5054 119 71 53
-4.98758 0.0648411 18.2109 77 26 13
4.7042 0.630138 20.5622 16 8 4
5.9904 1.00036 19.2091 44 20 10
5.89284 1.05973 19.9083 98 78 68
6.5762 1.59024 20.0184 98 64 43
6.14794 1.50874 18.8028 130 96 73
6.15255 2.15674 18.385 133 86 62
6.44426 2.61511 18.5008 152 120 102
-2.88881 2.6493 20.7407 189 137 116
-3.26037 2.70283 20.8303 170 116 86
5.81574 2.89455 18.844 178 146 134
-3.51499 3.03332 20.8907 204 155 124
6.91891 3.04412 18.5045 184 142 130
5.69434 3.35685 19.1355 126 87 86
-5.28212 3.21584 20.153 140 90 69
5.88716 3.45488 19.0411 32 13 8
-5.68961 3.25195 20.0885 64 28 15
6.00386 3.54393 18.8872 174 147 142
6.20145 3.52291 18.7985 32 20 20
4.5445 -3.29529 16.9937 150 122 110
4.63236 -3.15217 16.8844 120 74 51
4.93077 -2.64989 16.4704 124 36 28
-2.83985 -3.17108 19.8818 106 52 29
-6.46093 -2.98176 18.9703 52 26 8
-6.27239 -2.74829 19.1867 126 80 60
-2.27966 -2.74214 20.0648 133 82 62
-2.77969 -2.20787 20.5486 162 104 78
-6.09572 -1.92176 19.7775 52 19 6
-6.89169 -1.62284 19.3541 27 8 6
-7.87436 -0.82848 19.6555 171 119 87
-7.37862 -0.5554 19.5994 102 56 36
-3.16955 0.126211 19.3474 127 76 60
6.34969 0.423 18.1908 184 157 138
5.19455 0.524506 20.6637 37 18 6
6.58908 1.0743 18.7362 98 78 66
6.44972 2.18139 18.3241 102 60 40
5.63263 2.35417 18.741 184 158 152
-0.385448 2.03494 16.8571 26 14 11
6.65344 2.65174 18.7168 133 90 66
4.64312 3.10603 20.3751 157 135 123
-4.04086 2.9341 20.9587 82 34 18
-4.63842 3.30115 20.3669 74 37 27
-0.369621 3.53517 17.6029 89 73 68
-0.123772 4.33625 18.0578 60 20 20
-3.0747 -2.34073 20.8975 72 36 9
5.30693 -0.971444 19.4166 125 112 90
-7.85536 -0.811569 19.8023 205 150 111
4.92594 -0.479056 19.9614 62 20 3
-7.92085 -0.552249 19.8172 167 138 111
-7.4106 -0.129037 19.8565 132 86 68
-3.75509 -0.0136731 18.5191 144 91 77
-8.19447 0.583054 15.2915 48 22 21
6.04482 3.18842 18.6395 164 103 74
5.00153 -2.9185 16.5334 126 88 72
-6.80341 -2.5927 18.778 92 45 30
-7.9248 -1.06432 19.6984 149 126 104
-3.52901 -0.256122 18.7035 90 43 26
-7.6953 -0.0920388 19.9845 142 114 95
-0.296586 3.43984 16.7882 50 28 20
-0.641548 4.67036 18.0344 99 68 59
4.97934 -2.91448 16.5144 124 82 63
-7.35382 -2.25155 18.5663 158 110 90
-3.15202 -2.21391 20.9204 152 106 72
4.77228 -1.1358 19.2097 91 70 54
-7.87294 -1.11441 19.7368 80 40 22
-8.0718 -0.752825 19.6525 118 96 68
6.82709 -0.15728 18.0482 24 12 11
5.95076 0.221007 18.171 58 18 6
4.61214 -3.15607 16.8658 105 68 51
-7.10323 -2.94128 18.8176 132 90 68
4.96013 -1.10771 19.3327 128 93 74
-7.86303 -1.11584 19.7345 61 26 10
-7.95933 -1.07726 19.7306 158 140 116
4.80401 2.44948 19.4793 94 68 64
-0.265737 3.37123 16.7985 37 19 11
-0.286881 4.30339 17.9994 181 168 170
-2.72029 -3.74286 19.9272 92 59 42
-6.82393 -2.04343 18.9739 120 60 43
4.94046 -2.9596 16.6408 99 48 25
-6.77002 -2.62823 18.7556 107 60 47
-7.58161 -2.57436 18.7435 108 68 41
-1.64087 -1.39927 20.2972 138 90 70
-1.31009 -0.683261 20.7437 106 59 32
-5.40989 -0.249061 18.8929 76 33 15
6.29538 3.36775 19.0219 178 136 97
5.9701 3.49274 19.28 62 32 28
-0.555758 4.69731 18.0896 131 100 92
-7.58158 -2.59549 18.791 106 67 42
-6.83357 -2.30789 18.9285 143 89 71
-6.02007 -1.77451 19.7869 50 16 5
-6.11067 -1.27636 19.4728 160 115 94
-7.82239 -0.583255 19.7049 49 14 4
4.64893 2.39455 19.7211 154 108 100
1.34372 3.18597 17.1022 154 130 117
-3.09042 -3.56774 20.2593 116 71 52
-3.46145 -3.19234 20.6385 40 18 4
-1.40489 -2.22647 20.5629 44 18 9
-6.79552 -2.00141 18.9469 172 110 88
5.38824 2.52342 18.8129 146 110 98
4.74636 2.71896 19.5549 88 60 62
4.968 -0.432185 19.6012 54 14 1
-4.65161 0.0426661 17.6253 136 86 69
-8.27309 2.14071 16.0796 83 78 88
5.68552 3.02623 18.89 120 60 60
-8.93902 3.29927 16.3785 112 31 8
-6.28376 -2.88089 19.5004 149 102 82
-7.15151 -2.96453 18.696 124 80 58
-7.87537 -1.01918 19.7296 52 20 10
5.17454 0.59651 20.2786 48 28 14
-0.327835 3.4362 16.8161 35 16 8
-7.91293 -0.785644 19.6117 188 138 110
-0.591165 2.31491 16.949 58 8 4
-5.71144 3.27531 20.1837 52 15 8
-0.888542 4.41728 18.2676 82 48 42
-2.5072 -3.45386 19.9702 120 76 62
-2.21721 -2.68875 20.047 130 79 64
5.14069 -1.51234 19.8047 96 32 18
-4.92263 -0.33544 18.2067 223 169 130
4.78985 -3.69505 17.3124 99 18 10
-7.31011 3.24013 20.0787 191 140 111
0.502099 3.21159 17.0093 144 127 116
-3.07922 -3.57026 20.1307 134 84 64
-6.82644 -1.75928 19.1323 126 71 55
-5.79853 0.0184001 18.5625 144 94 72
-7.27083 0.112542 19.1863 92 42 22
-8.11481 3.59539 17.4857 119 31 17
-8.07577 3.74956 17.6259 150 102 92
-7.98709 -0.311195 19.9163 112 82 56
5.26967 -1.29638 15.7585 158 128 114
5.26481 -0.808837 19.6039 138 94 73
6.25005 -0.53821 17.9321 117 108 106
6.82956 -0.428005 17.8068 59 26 14
5.03279 -0.498867 19.4705 112 78 63
6.58097 -0.233474 18.0246 55 50 56
6.30205 0.294489 18.0989 74 32 14
-8.14848 0.521456 15.3454 158 126 124
-8.21555 0.644395 15.3374 152 123 121
7.81616 1.09262 18.7817 54 26 12
6.58342 1.09609 18.7326 65 46 38
-7.76923 1.65597 16.4108 168 131 104
6.26747 2.34534 18.2333 164 122 99
6.58001 2.37101 18.3935 198 154 134
-8.49149 2.13436 16.0273 26 22 31
-7.8042 2.9016 16.9426 120 53 42
-8.75954 3.30107 16.8747 162 120 102
-8.93584 3.28608 16.4584 140 80 36
-7.60161 4.69335 17.4992 114 31 28
-8.74348 5.09697 16.6871 128 24 26
5.41554 -3.31277 16.2652 177 140 116
6.3861 -3.13189 16.196 238 223 218
-7.24526 -2.55666 18.5699 172 124 94
7.44805 0.109491 18.0452 91 48 26
7.38408 1.0373 18.9079 18 10 6
-7.66373 0.855803 16.7133 162 140 112
6.77362 1.29337 18.8991 24 11 6
8.00903 2.94331 18.6075 152 118 106
6.43136 -1.52162 17.809 116 26 19
-0.958986 -1.77557 20.3525 84 66 24
5.87802 -1.32023 19.9995 69 49 14
6.50375 -0.890955 17.5234 170 100 73
-8.03478 -1.30352 19.73 128 112 78
6.49105 -0.9306 18.973 191 162 149
-8.04987 -0.859915 19.6132 132 108 80
-8.26981 0.374767 15.4757 138 68 68
-8.15603 0.509815 15.3384 158 132 132
-8.23292 0.63906 15.3628 152 130 129
-8.08392 0.93456 16.4896 77 25 6
0.0585993 1.81481 17.1754 132 86 62
-7.77039 1.6614 16.3999 169 128 104
5.60821 2.29899 18.7018 180 148 136
-8.43631 1.90582 15.9052 100 91 100
-8.31303 2.12553 16.2687 118 114 122
5.21351 3.14612 19.3428 119 88 84
0.474221 2.9953 16.697 80 42 30
-8.74689 3.78366 17.4328 148 114 100
-3.10641 -2.81258 19.8399 100 30 10
-6.80671 -2.583 18.7963 92 43 32
6.17472 -1.79015 19.1715 96 94 56
6.1459 -1.45396 17.6437 120 39 24
4.92499 -0.435001 19.5949 55 19 8
-4.8577 -0.427535 18.1526 216 165 124
7.43731 0.109154 18.0248 83 40 19
6.20109 0.18113 18.2148 150 110 90
-3.79982 0.0447673 18.5612 174 118 100
-7.24297 0.191841 19.941 46 13 6
-8.27898 0.663296 15.1929 160 125 126
7.77173 1.09854 18.6832 80 54 38
6.86144 1.21989 18.7996 84 39 14
7.68754 2.44705 18.3604 153 100 83
-8.24253 4.918 17.21 118 65 62
4.85363 -3.34579 16.6861 115 8 3
4.57427 -3.31204 16.9919 146 115 100
-1.67997 -0.968771 20.2807 154 102 76
-1.51091 -0.431261 20.7071 87 56 31
-7.59887 -0.145355 19.4058 89 45 22
4.59024 1.82007 19.824 156 88 64
6.64155 2.46266 18.4813 120 74 52
7.40376 2.63843 18.4901 152 123 109
-0.590864 2.31554 17.0142 80 16 12
-8.31215 2.11613 16.1849 102 96 106
-3.89744 2.90346 21.0787 154 105 83
-8.51083 2.17188 15.9495 106 101 112
-8.27221 2.20472 16.077 26 22 36
-7.48233 3.30065 20.4981 163 114 88
-8.14822 3.03002 16.9319 124 53 27
-8.65409 3.61434 17.2999 84 12 5
-8.81921 3.72297 17.0498 112 25 8
-8.21815 3.91759 17.6618 140 78 33
-9.2549 4.35162 17.1857 163 76 32
-8.8332 5.12222 16.8651 135 21 22
4.74787 -3.03346 16.743 145 110 94
-3.13181 -2.83395 19.909 134 62 40
6.50198 -1.59368 19.1491 83 83 63
6.17995 -1.43321 19.3075 114 109 74
-1.16851 -1.3096 20.2242 153 104 79
4.86107 -0.424155 20.04 103 59 30
4.77353 0.228353 20.0577 86 63 27
6.84282 0.655608 18.7387 98 64 40
4.3635 2.17394 19.9973 116 36 28
5.85701 2.93141 18.8732 136 97 83
-8.49585 2.78321 16.3168 21 14 28
-8.12487 2.89653 16.752 82 4 6
0.244517 4.35904 18.0915 57 18 17
-7.45127 -2.28772 18.8845 158 112 90
-8.04543 -0.541851 19.931 160 144 119
5.12189 -0.324995 20.1031 148 112 94
4.87155 0.752637 20.5809 138 112 90
4.35159 2.07078 20.2869 166 142 128
-1.54366 3.12595 18.2933 109 84 74
-0.702049 3.17167 17.0378 155 38 36
4.93748 -3.07197 16.3594 135 98 76
-7.16601 -2.97733 18.8631 126 84 64
-7.55484 -2.63819 19.3181 44 17 8
-2.30361 -2.49198 20.1835 60 24 13
6.17366 -1.73101 19.2892 134 134 90
-5.76956 -1.57575 20.1379 100 64 36
-0.930433 -1.30729 20.7211 106 75 42
-3.30277 2.68623 21.0377 186 133 110
-3.34744 3.0343 20.868 200 147 107
8.43784 -1.87042 19.3777 122 94 78
6.30879 -0.793498 17.9086 111 50 30
6.08245 0.1854 18.6238 76 27 7
-7.53307 1.42434 16.7961 162 140 110
7.85526 2.8589 18.5153 92 50 38
-8.82841 3.69898 17.0847 100 20 8
-8.76004 3.81497 17.4715 141 93 78
6.14227 -1.09609 17.6499 146 52 26
5.14703 -0.976022 19.4401 130 78 56
-3.87918 0.238004 18.6986 158 103 84
-4.25476 2.94002 21.0724 84 50 41
5.8524 3.15938 18.6761 128 46 48
-9.2278 3.90431 16.8713 167 74 50
0.52657 3.20856 16.994 168 150 142
-8.65553 3.26423 17.0234 150 88 78
-6.44606 -3.01009 19.7408 152 104 80
6.23807 -1.79756 18.8819 90 82 64
4.35817 2.09773 20.1804 168 140 126
-8.65027 3.27491 17.0124 164 122 108
-9.24452 4.35684 17.1693 179 106 42
-2.38826 -3.62419 19.9699 95 54 38
4.80346 -0.243565 19.8636 98 56 31
-8.45747 2.07157 16.03 20 16 29
-8.42437 2.76266 16.3688 27 14 25
-8.11527 3.56942 17.5605 107 32 10
6.1695 -0.362004 18.3569 124 96 84
-7.90766 -0.641652 19.7605 87 44 15
7.16631 0.405219 18.162 168 136 116
4.89622 0.759416 20.7171 130 104 77
7.02067 1.52236 18.8417 128 110 94
0.850969 3.46359 16.8899 138 122 116
-8.66901 3.27756 16.9867 164 126 113
-1.26092 -2.40534 20.4175 81 64 26
6.39317 -1.24264 19.7415 112 93 73
-5.83813 0.204981 18.5377 154 100 73
5.74963 1.1475 19.2974 25 15 10
-7.78967 1.69564 16.4819 164 127 103
-4.62368 2.96314 20.3705 41 12 7
-1.60566 3.29229 18.3669 120 95 88
0.833404 3.45934 16.881 138 121 114
-8.72916 3.33735 17.0848 156 134 120
4.81151 -3.37056 16.5628 114 8 7
-8.0155 -0.542864 19.6906 162 146 123
-3.42641 0.52052 20.8204 168 118 93
5.37049 0.712185 20.7412 132 103 82
4.36979 0.897636 20.15 110 68 43
-8.08841 0.745652 16.0193 151 126 106
6.14533 3.26859 18.6723 190 146 88
5.81681 3.37399 18.8871 70 32 32
-7.64918 4.64903 17.5589 126 17 18
7.12295 -4.95472 17.4349 40 22 8
-3.12567 -0.226163 19.1994 76 24 6
-9.40493 3.89967 16.9838 140 61 31
5.88846 -2.27307 16.095 112 86 76
6.51165 1.74273 19.2098 173 134 110
-2.62853 -3.44684 19.7749 163 108 88
-2.20401 -3.44023 20.0492 82 44 26
-8.28482 3.96222 17.7558 130 74 26
5.64944 -0.133965 19.5361 124 112 88
5.61805 3.27195 19.0277 97 55 53
1.22676 4.09842 17.4091 136 70 61
-3.03164 -3.61002 20.1202 108 68 52
6.33846 3.02886 18.5018 123 112 108
-1.55416 -1.80363 20.0927 140 92 74
-6.74918 -1.55631 19.5426 95 46 30
-4.79681 -1.36918 21.738 100 72 42
-4.91057 -0.351365 18.2394 212 160 120
-7.80529 -0.370865 19.9568 172 116 90
-7.67457 0.0234769 19.9281 104 78 58
-1.43516 3.10631 18.2851 116 94 86
-7.26788 -2.56783 18.6383 176 126 100
-1.5609 -1.81739 20.2037 146 98 80
-7.926 -1.60929 19.7721 120 110 73
-1.14795 -0.887035 20.4408 89 70 44
-7.30371 -2.76474 18.9607 102 63 42
-7.99963 -1.2687 19.6086 135 114 90
6.55158 2.54611 18.3765 150 109 94
-3.05036 -2.35907 20.7736 60 22 2
-1.19064 -0.808357 20.4203 89 64 41
4.67632 2.42127 19.7548 153 116 110
-1.03535 -1.6603 20.5847 48 28 8
-1.2067 -1.33257 20.1104 158 106 81
-1.27402 -1.66667 20.34 28 8 2
0.527516 3.93837 19.6138 126 99 95
6.63908 0.262176 18.1294 24 6 2
6.40852 0.280947 18.1692 68 29 16
-1.11237 -1.28726 20.1464 138 99 76
7.44865 -0.232465 18.041 184 141 116
6.95368 1.49936 18.6608 129 110 94
-6.85486 -2.13798 18.8739 99 54 43
-7.89185 0.203915 20.9617 127 96 75
6.52923 0.540856 18.2276 124 93 78
6.33745 3.0432 18.5338 100 104 95
-2.5879 -3.39458 19.8281 162 102 83
6.71323 -5.57496 17.3109 252 214 192
6.90638 -5.56013 17.3281 219 172 148
6.53569 -5.36074 17.5898 156 136 96
7.15964 -4.93998 17.3954 38 22 8
4.62946 -4.85416 19.1281 120 97 70
4.76713 -2.68463 17.1357 136 62 56
5.94701 -2.49625 16.2326 167 141 133
-2.10439 -3.13452 19.9541 112 70 50
-6.24748 -2.63494 19.0704 60 20 10
-1.22212 -2.2507 20.5254 66 48 15
8.65058 -1.84516 19.4672 113 68 37
-5.91932 -1.7259 19.8187 66 26 4
-1.83999 -1.44102 19.9369 103 58 45
6.58401 -0.972161 17.6101 90 28 8
-5.0698 -0.0830034 18.3071 82 28 8
5.95008 0.962751 18.9007 56 30 16
7.83268 3.01907 18.6507 104 76 63
-8.05217 2.66334 16.5826 42 16 20
0.308684 3.2519 16.9487 174 128 118
0.843859 3.91111 17.2406 62 18 15
6.80038 -4.89598 17.2307 58 32 19
5.89612 -2.58439 16.1173 91 64 56
-7.17061 -2.50843 18.5602 118 76 54
8.58214 -1.88999 19.5749 85 60 48
-8.02959 -1.25659 19.7291 139 117 92
6.30181 -0.666531 17.9976 44 40 42
6.11904 -0.630103 18.1401 67 47 40
-4.86104 -0.431296 18.0735 220 167 124
5.91364 1.03884 18.9282 60 36 26
5.45953 1.37965 19.742 100 84 64
8.07264 2.96889 18.7219 176 148 134
6.05991 3.33644 18.7516 180 117 92
6.52615 -5.36226 17.5526 158 142 99
7.12669 -5.28521 17.4755 138 115 70
6.87344 -5.18945 17.4756 202 154 128
6.43128 -5.04775 17.6321 130 85 50
-3.11421 -2.78004 19.8498 101 31 13
5.9343 -2.16534 19.9968 113 82 41
6.24088 -1.64779 18.8611 149 126 113
-5.94548 -1.7413 19.8287 54 17 1
4.82147 -0.451313 19.7928 78 35 15
-7.9625 -0.445631 19.8478 152 131 106
6.84181 1.20225 19.2715 95 76 65
6.87969 1.21494 18.8494 74 32 8
5.50823 2.20819 18.6602 120 70 48
5.27528 2.47032 18.866 132 96 81
-2.92514 3.02012 20.5459 208 154 116
0.721321 3.21189 16.7141 100 84 80
-0.382957 3.38501 16.8184 54 34 28
6.52412 -5.37881 17.5794 154 146 99
-3.33116 -3.30105 20.5697 162 112 86
-6.28149 -2.66338 19.1052 56 18 10
8.69645 -1.67855 19.8931 143 114 89
6.30019 -1.42396 18.9465 140 122 107
-1.13089 -1.2961 20.2126 148 105 80
-8.03863 -1.2454 19.7507 139 117 92
-5.04162 -0.0627935 18.2611 76 22 6
-4.73633 0.0341728 18.071 174 122 105
-4.54372 0.220779 18.2124 159 110 92
5.23278 0.50379 20.3569 70 50 37
6.84658 0.611551 18.6674 105 70 46
6.33091 0.761466 18.4108 139 112 96
7.54166 0.844239 18.4577 82 55 39
6.65835 2.69944 18.5121 139 104 90
4.67642 2.95386 20.175 144 131 122
-3.32088 3.0934 21.1547 214 162 122
-0.262937 3.14932 16.7102 72 58 52
6.5984 -5.43473 17.2013 168 110 80
6.45802 -5.34724 17.4662 154 146 99
6.64188 -5.08133 17.4726 160 108 78
6.99492 -4.92799 17.2659 55 42 26
4.44223 -4.01339 18.5269 118 92 62
6.24874 -3.17105 16.1855 183 168 162
-7.49167 -2.42911 18.738 46 18 8
7.13548 -0.227788 18.0627 128 70 48
-7.57334 0.163559 19.7811 120 92 68
5.09281 0.569092 20.0573 38 22 10
6.14376 2.13722 18.2402 142 93 70
6.65626 -5.19182 17.406 170 117 91
6.62662 -5.0741 17.4449 162 112 81
6.41752 -4.97518 17.4429 118 39 22
4.41414 -4.34439 18.678 136 112 85
5.86759 -1.9357 20.181 98 52 26
6.41209 -0.82138 18.0739 172 73 44
-3.08315 -0.959843 19.6444 120 73 47
5.15017 -0.604311 19.6349 152 121 102
6.41736 -0.334618 18.1751 65 60 60
-2.96769 -0.168474 19.1889 141 94 72
-3.40417 0.528207 20.6986 172 124 100
-0.451222 3.33576 17.2449 116 104 98
4.51729 -3.27004 18.325 90 84 67
-3.82255 -1.66632 21.7485 128 88 58
-8.0163 -1.30138 19.6735 130 109 83
-1.15582 -1.01747 20.4766 112 88 68
-0.0516383 3.36 16.9327 138 118 112
5.57312 -3.08487 15.9719 118 71 42
-7.7808 -1.2996 19.6254 138 88 62
6.33988 0.708659 18.3851 154 128 111
7.0281 -5.55211 17.1182 166 132 100
7.09601 -5.27932 17.4088 154 136 90
6.81582 -4.91498 17.268 44 22 10
7.11841 -4.89419 17.2418 166 134 110
7.35126 -4.66267 17.3534 172 156 142
6.03963 -4.95924 18.4924 106 88 52
9.36459 -4.8612 18.4276 98 75 42
9.17976 -4.94413 19.2571 112 92 56
9.5768 -4.36054 18.0124 134 120 73
4.38476 -4.40963 18.7277 105 72 35
9.23127 -3.84545 17.36 158 128 101
4.74979 -3.61623 17.1704 92 14 6
6.01861 -3.38728 16.5695 171 126 102
7.44127 -3.14222 15.7169 98 68 50
4.85937 -3.33527 16.7178 90 14 2
5.84106 -3.05452 15.4933 245 230 220
6.71173 -3.11175 16.0381 164 142 133
9.11513 -3.33333 17.0643 111 89 58
6.18388 -3.1392 16.297 180 155 146
7.95003 -2.98326 15.9148 160 112 85
5.98511 -2.91144 15.7586 188 166 157
8.73369 -3.05466 16.5597 128 118 92
4.35259 -3.32187 18.1964 104 90 70
4.31045 -3.20037 17.6387 148 128 112
6.28729 -2.8453 15.8782 138 120 116
8.02957 -2.85904 15.8999 118 82 60
6.16669 -2.84944 15.9218 141 120 116
7.64922 -2.80713 15.8486 162 120 96
7.88452 -2.82843 15.9613 102 58 34
7.58222 -2.78768 15.866 170 126 107
7.78574 -2.7972 15.8883 179 136 118
-3.40652 -3.61592 20.6197 141 127 90
8.53528 -2.79971 16.5722 100 29 24
8.69392 -2.78419 16.6419 159 126 94
4.63017 -2.89329 17.3006 112 84 72
6.63198 -2.58242 16.0671 244 230 226
7.94205 -2.5916 16.1848 116 100 86
5.0697 -2.62454 16.5837 128 32 30
6.52539 -2.48144 16.0083 98 82 76
6.60651 -2.48745 16.0787 193 176 172
-3.38129 -3.27822 20.7061 142 94 72
8.39471 -2.47994 16.5079 105 44 34
6.82405 -2.40722 16.1934 207 190 184
8.59811 -2.4691 16.5683 56 42 14
-6.23215 -2.99272 19.7042 24 9 2
5.89858 -2.41955 16.3489 250 238 232
7.79951 -2.40358 16.2275 156 142 126
8.16956 -2.29662 16.5546 115 85 63
8.03378 -2.19627 16.4407 181 157 144
7.45917 -2.147 16.2981 115 98 86
-5.97871 -2.28144 18.9928 88 30 14
6.91551 -1.64038 18.475 94 75 59
-3.7981 -1.74329 22.0855 124 90 51
5.92038 -1.47687 20.2745 123 94 66
6.28697 -1.41266 20.946 125 113 67
5.8822 -1.32032 19.9362 68 41 12
6.17928 -1.10984 17.7208 141 44 20
6.17616 -1.18862 19.1113 90 76 59
5.13172 -1.15642 19.4278 164 118 98
8.24176 -1.10144 19.0548 164 129 103
7.60146 -0.968934 18.0422 128 80 68
7.57362 -0.940169 18.0588 72 30 18
7.50766 -0.925127 18.0847 134 83 67
4.59868 -1.06824 20.0988 98 73 48
5.28186 -0.968297 19.5126 144 104 82
6.48865 -0.830161 17.5333 154 77 52
-3.46452 -0.901701 20.4316 132 88 57
6.11665 -0.667207 18.168 68 49 42
5.73521 -0.754293 20.0373 77 94 80
7.58978 -0.618863 17.8549 143 76 46
5.40805 -0.691167 19.6905 80 51 34
6.58038 -0.587658 17.8602 92 80 80
5.43278 -0.674804 19.8483 114 78 56
5.47228 -0.591502 19.8427 30 8 0
5.83746 -0.595629 20.2443 144 153 140
4.72381 -0.522567 20.0095 93 67 44
5.14746 -0.507286 19.6337 48 14 2
5.75755 -0.516495 20.2224 22 22 13
5.68088 -0.502961 20.2191 32 22 10
5.64417 -0.375463 20.361 140 122 98
4.66621 -0.340762 19.7332 116 85 57
7.41602 -0.228402 17.929 149 106 86
-7.69212 -0.383689 19.6848 171 116 90
6.28235 -0.130451 18.5168 90 67 57
-2.41745 -0.24249 20.6163 107 64 49
-3.50683 -0.208484 18.7536 102 54 38
5.32132 -0.0227139 19.3945 160 146 120
-5.15912 -0.0270466 18.4265 172 111 86
-3.36024 0.00716318 19.0434 86 34 18
-4.81761 0.0204201 18.1859 160 104 84
5.82389 0.202845 21.3435 122 105 74
5.11596 0.453963 19.8695 40 16 4
-4.40919 0.330821 18.4388 64 19 5
-4.65954 0.433687 18.3926 90 42 28
4.49115 0.686012 20.4057 30 14 3
6.005 0.680589 18.3205 221 189 166
-4.27706 0.69826 21.6637 137 112 95
-6.98571 0.622323 17.3165 122 70 55
5.77971 0.947234 19.2304 41 20 9
6.46702 0.963245 18.5904 176 152 137
7.42904 1.05623 19.017 34 22 14
5.92338 1.0415 18.7245 59 34 18
6.53323 1.08993 18.5099 173 152 141
6.3267 1.21277 18.4178 52 27 14
7.85529 1.26603 18.8879 50 29 14
9.47503 1.30318 19.9098 113 84 58
4.34298 1.32242 20.465 160 130 114
8.0662 1.27901 18.7154 60 47 32
5.45956 1.38094 19.733 83 70 50
6.93517 1.55586 18.7342 196 174 160
4.31403 1.85071 21.5337 104 90 67
6.39681 1.70561 18.7958 222 186 165
8.85308 1.8218 19.8823 58 30 4
4.28635 1.85945 20.8556 106 76 56
1.24736 1.79265 18.3331 143 96 78
5.27211 2.0606 18.9521 222 181 158
6.13256 2.03308 18.6219 140 99 82
5.29747 2.0598 18.4835 198 150 130
5.3833 2.32804 18.874 175 138 125
6.17955 2.32619 18.4524 203 163 144
8.61833 2.5176 19.0585 144 102 88
7.69523 2.55919 18.4786 196 158 137
5.67152 2.82467 19.7911 232 214 206
-2.85101 2.7846 20.676 159 105 76
8.19446 2.91107 18.7139 148 128 120
-5.30257 2.81426 19.6134 194 140 104
1.32709 2.65868 17.3999 154 126 114
8.07643 2.95824 18.5102 96 76 64
8.63204 3.15194 19.3424 58 40 26
8.42597 3.11054 19.0397 92 72 58
8.54547 3.21948 19.3769 192 167 152
7.71203 3.16844 18.6548 220 192 170
1.45778 2.97178 17.5035 151 134 122
-0.536766 3.02676 16.9892 196 149 144
0.451949 3.08664 16.8721 206 181 174
0.657272 3.36526 16.884 68 53 48
-0.864044 4.2295 18.0455 148 94 84
6.84719 -5.52358 17.1733 192 142 116
6.65918 -5.18357 17.4082 187 136 111
7.10846 -4.96834 17.4301 46 30 17
8.40379 -4.74044 18.4494 108 92 56
9.40162 -4.35758 18.0488 110 79 48
4.34374 -4.39981 18.6459 106 70 32
6.40129 -3.59181 16.2216 25 14 6
4.78048 -3.65786 17.3305 91 18 7
7.57123 -3.21752 16.0418 74 49 36
7.2784 -3.07151 15.3241 40 22 11
6.02688 -3.15789 16.0464 173 146 134
6.54168 -3.07108 15.6405 176 146 132
5.83836 -3.09214 15.8486 149 116 101
6.25669 -3.15101 16.2109 216 200 195
6.06278 -3.05374 15.8164 126 106 98
6.05035 -2.94211 15.9102 176 153 144
4.36173 -3.24592 17.8841 140 122 106
8.08137 -2.8843 16.0427 120 78 50
6.46798 -2.87445 16.3772 132 114 108
7.93401 -2.84041 16.0603 108 62 38
7.5007 -2.71305 15.8846 129 92 80
8.68099 -2.76945 16.6308 158 123 90
4.50752 -2.98519 17.859 86 70 60
7.95509 -2.59476 16.2248 115 101 88
6.35557 -2.6195 16.3805 140 124 116
6.57405 -2.58302 16.2754 202 186 182
-3.63533 -3.51636 21.6078 105 90 54
-3.3767 -3.17499 20.3517 50 22 3
6.64294 -2.43359 16.0251 112 94 91
6.70689 -2.40407 16.0324 197 178 172
5.98398 -2.39805 16.162 174 154 145
7.17788 -2.36319 16.0872 130 34 35
-6.6262 -2.82684 18.8955 92 57 44
7.54029 -2.32988 16.1625 146 134 124
-6.14144 -2.7908 19.1086 48 20 4
6.79683 -2.33402 16.4828 88 72 68
6.05017 -2.2855 16.2498 162 141 132
7.4814 -2.1678 16.3603 120 104 92
-7.47164 -2.49251 18.6503 100 66 50
8.22415 -2.08078 19.5221 49 30 20
8.59906 -1.84924 19.3781 106 56 32
7.31568 -1.5449 18.7594 156 134 122
6.83017 -1.22446 17.6373 188 135 108
6.10375 -1.3163 19.0696 152 143 104
7.06405 -1.03961 17.7 48 24 12
7.80907 -1.0573 18.2629 97 65 56
7.97287 -0.633834 17.8959 72 55 40
6.59377 -0.602737 17.8937 72 59 60
6.40041 -0.527524 17.8526 26 18 23
5.32477 -0.585097 19.8173 58 25 10
6.19674 -0.498685 18.112 144 124 118
6.81004 -0.376584 17.8903 58 47 43
4.82836 -0.445933 19.8271 74 32 16
7.77134 -0.347896 18.1525 122 84 65
6.11894 -0.182355 18.2699 161 132 117
6.18439 -0.143467 18.1221 59 42 36
6.15015 -0.187239 18.4058 164 130 114
5.6496 -0.114403 21.0013 86 60 34
4.71952 -0.0586702 20.3059 178 150 127
7.25459 0.0188832 18.0648 76 28 10
-3.36166 0.000767646 19.0353 101 51 35
6.21843 0.151254 18.3008 198 170 152
-7.10901 0.131719 20.0388 68 34 24
-7.12642 0.140967 20.2867 68 24 12
6.00177 0.340196 18.3274 169 125 100
4.6336 0.414158 20.2765 33 12 8
5.16145 0.477609 20.0463 36 14 2
-7.32014 0.316012 20.3192 121 96 76
4.68981 0.475681 20.293 128 104 90
4.96251 0.492962 20.2104 44 19 5
5.13255 0.493638 20.3449 72 46 28
-4.51168 0.366645 18.5041 98 53 43
4.59043 0.518789 20.518 156 130 114
4.77678 0.562819 20.5608 38 21 12
6.29756 0.766282 18.3473 140 113 98
4.56723 0.933573 20.7851 150 94 64
6.04581 1.01938 19.08 43 20 6
7.49959 1.04822 19.0486 18 10 8
7.99824 1.09495 19.1531 176 147 124
6.34737 1.07178 18.7396 174 144 124
7.76692 1.14167 18.5826 38 16 11
6.68039 1.15368 18.7433 86 70 63
5.77193 1.18102 18.9799 20 10 6
7.84104 1.21025 18.7436 160 136 120
5.72649 1.23588 19.1689 27 20 14
6.42037 1.23412 18.7394 74 48 30
7.81051 1.27152 18.7862 50 29 14
7.93076 1.26361 18.6337 178 158 146
6.35935 1.40522 18.9723 98 69 51
8.96712 1.68506 19.8358 38 16 8
6.38688 1.70517 18.789 221 184 164
5.45982 2.11971 18.9816 186 139 118
5.53021 2.23064 18.7651 115 66 46
6.08963 2.28813 18.1983 190 150 130
4.55672 2.90499 20.2908 62 39 30
7.63191 3.28469 18.6951 216 192 174
7.62087 3.30973 18.6683 200 176 160
2.02072 3.08789 17.755 158 142 136
-0.674219 3.09021 16.605 149 62 58
0.865511 3.33408 16.8697 194 176 170
-0.532345 4.6287 17.7826 186 157 150
6.67353 -5.54989 17.2049 240 195 174
7.28299 -4.6338 17.2378 157 142 130
9.36271 -4.35086 17.9759 108 77 46
4.3266 -4.20859 18.1995 148 126 99
4.76627 -3.64319 17.2432 96 30 14
5.97474 -3.13728 15.8858 212 192 180
5.74129 -3.02846 15.6418 158 128 116
6.43272 -3.06743 15.8524 224 207 202
7.47429 -2.87592 15.8236 152 122 112
8.17206 -2.92405 16.1955 128 88 60
7.41209 -2.72148 15.3876 156 114 92
7.76653 -2.79498 15.8538 155 110 90
6.09247 -2.66141 16.1296 116 92 82
7.65637 -2.62227 16.0617 152 133 122
5.94887 -2.58437 16.0005 148 124 114
6.51755 -2.6554 16.336 102 86 80
5.92816 -2.60652 16.1952 102 76 66
6.62355 -2.5826 16.0547 238 222 219
6.42058 -2.54536 15.9979 148 134 129
-3.28449 -3.18013 20.3698 86 40 18
7.58963 -2.43491 16.2919 114 110 97
-3.49236 -3.15712 20.7814 63 37 12
4.72696 -2.58601 17.3585 170 134 115
6.65034 -2.39337 16.1784 192 178 174
4.64692 -2.61014 17.562 154 124 108
7.50373 -2.31966 16.08 144 136 126
8.01102 -2.19181 16.3804 170 146 134
5.52256 -2.45232 19.8665 130 104 61
8.48972 -2.14442 19.1707 26 14 3
8.72785 -2.06409 19.5643 136 122 86
5.22777 -1.6871 19.8932 150 138 94
6.90497 -1.23448 17.8399 172 120 92
7.12319 -1.03307 17.8706 54 28 14
6.60761 -0.97757 17.6675 98 37 19
7.94494 -0.9852 17.7262 123 98 58
-4.68753 -1.40143 22.574 158 144 115
6.38778 -0.975303 17.71 121 26 2
7.08864 -0.962999 18 130 81 62
7.66062 -0.898413 17.5717 180 146 121
5.15049 -0.988805 19.4281 136 87 66
7.61492 -0.738672 17.8281 182 134 109
-3.86716 -0.9211 21.4809 126 84 60
7.90826 -0.630903 17.7732 52 37 25
6.60236 -0.600397 17.9258 47 34 35
5.49788 -0.613269 19.8496 20 8 4
5.33868 -0.577106 19.829 54 20 6
4.72392 -0.567082 19.9823 95 69 45
5.37602 -0.533602 19.7113 97 62 43
7.82103 -0.342056 18.2143 133 90 72
8.02157 -0.342229 18.1096 172 138 120
7.45747 -0.232097 18.0346 162 118 97
-3.59277 -0.235968 18.8556 94 47 32
8.02391 0.164783 18.9465 74 45 25
4.95458 0.312607 19.533 137 102 82
4.55512 0.353222 20.2464 76 48 32
-4.5558 0.400166 18.1157 110 61 48
4.5469 0.542887 20.6039 63 40 22
-6.98702 0.440706 20.2649 164 125 102
4.5361 0.676039 20.5778 29 15 3
-4.30371 0.678086 21.7271 150 132 108
5.79807 0.909238 18.752 101 54 34
6.00285 1.00228 18.9603 51 26 13
7.76497 1.11733 18.5447 30 7 3
4.37573 1.37223 20.8939 162 128 110
5.86159 1.48767 19.6263 94 75 58
6.24108 1.95719 18.5899 152 112 90
4.40568 2.15168 20.5985 163 134 116
4.44855 2.22071 19.7762 178 81 70
6.18607 2.33113 18.4813 190 150 130
6.38693 2.37745 18.2868 112 66 41
-0.510463 2.26396 17.0776 82 29 22
5.53342 2.66844 19.4198 128 92 80
5.30973 2.52305 18.3007 136 96 82
8.29625 2.80319 18.7319 55 33 22
8.25751 2.93205 18.8282 139 120 111
-5.31466 2.82516 19.6437 174 118 86
1.3952 2.73041 17.4917 125 108 96
-1.74904 2.91911 18.2585 153 120 107
-1.10909 2.86736 17.3473 98 72 64
-0.525949 2.9943 16.9317 156 80 76
-0.873393 4.19863 17.9547 153 94 84
-0.804231 4.23943 18.0145 74 16 10
6.63527 -5.52731 17.091 209 158 136
6.97456 -5.0872 17.553 160 112 86
5.45773 -5.18799 19.7053 103 88 56
9.51372 -4.91696 18.6528 102 78 44
6.90673 -3.29009 15.8868 13 8 5
5.9853 -2.88101 15.6861 140 120 112
7.97628 -2.85792 15.9152 123 82 54
7.80943 -2.81019 15.9506 164 121 101
-2.84107 -3.55456 20.0278 54 18 6
6.03513 -2.69112 16.3643 110 84 75
6.49551 -2.60433 15.949 196 178 176
6.46735 -2.6351 16.2031 77 62 56
6.30655 -2.57837 16.1511 100 84 78
7.84059 -2.5686 16.0271 128 114 104
6.50209 -2.578 16.2059 148 134 128
6.85526 -2.49664 16.5167 122 104 100
7.61154 -2.44688 16.317 100 99 85
6.56392 -2.35219 15.9649 178 162 160
7.1858 -2.36652 16.1752 132 38 38
7.56155 -2.33745 16.2704 155 139 130
7.95345 -2.17736 15.8457 150 131 116
7.86737 -2.21393 16.4251 153 135 122
-6.34444 -2.45767 19.2414 124 70 52
-1.32695 -2.59634 20.6261 152 140 100
8.13283 -2.03928 18.296 96 84 54
-3.02111 -2.33598 20.6643 72 30 9
5.91456 -2.18793 19.9349 91 56 19
8.72384 -1.93516 19.4646 127 82 44
8.36063 -1.84136 19.4178 20 10 2
6.95224 -1.66404 18.5011 89 76 58
7.38279 -1.56959 18.9548 154 135 124
6.83688 -1.22725 17.65 172 120 92
-4.1364 -1.71249 22.7551 88 60 22
7.07365 -1.23588 17.9043 168 118 98
5.7643 -1.302 19.7604 66 32 14
6.35163 -1.25614 18.9239 94 66 54
-8.06504 -1.30687 19.7872 136 114 90
-3.07168 -1.17859 19.9168 134 85 58
7.61918 -0.735289 17.8425 184 132 106
-3.25897 -0.854948 19.5474 112 70 40
-3.67782 -0.882021 20.3362 114 72 50
-1.17514 -0.817706 20.5955 86 66 42
5.42302 -0.723254 19.8412 114 74 47
5.3348 -0.686909 19.8108 92 55 38
5.58054 -0.544064 19.8072 10 8 5
-1.58568 -0.624628 20.6135 26 8 1
5.3105 -0.500542 19.502 109 74 52
-3.15339 -0.50801 19.3015 140 90 62
7.18382 -0.225529 18.1306 133 74 50
6.29986 -0.139166 17.9771 65 58 58
-3.51375 -0.239851 18.5906 78 32 19
6.40884 -0.106119 17.9881 28 19 22
6.11183 0.0338379 20.6087 42 25 6
-3.38005 -0.0152675 19.1681 84 34 18
4.64219 0.363488 20.6066 76 48 32
-7.38204 0.262303 20.288 158 138 122
-4.42115 0.309801 18.4376 58 16 6
4.56996 0.545077 20.7198 77 52 34
6.60047 0.514595 18.3297 123 98 86
-4.65734 0.396853 18.5828 110 61 48
4.61924 0.651318 21.7102 153 138 114
6.0031 0.685011 18.3253 206 172 147
5.96343 0.936705 19.4336 158 105 82
4.68172 1.03419 20.8997 46 22 6
7.47086 0.974 18.8123 25 13 7
4.81303 1.01393 20.5712 136 104 86
8.96373 1.2864 19.6657 68 32 12
5.52558 1.38603 19.9031 97 81 63
0.378833 1.82633 19.3728 156 130 110
-8.49155 2.04278 22.2136 100 72 38
6.19719 1.94192 18.3718 105 60 38
4.48097 2.235 19.9054 215 118 108
6.67717 2.37091 18.6137 170 124 103
6.43873 2.38771 18.4439 114 68 44
7.53512 2.59317 18.374 206 176 161
8.46147 2.71801 18.9134 175 152 138
8.4276 2.75365 18.7056 92 60 44
8.36889 2.82355 18.9376 49 28 20
5.70567 2.87425 19.642 237 223 216
8.11935 2.91909 18.7022 29 12 7
8.06559 2.97973 18.737 182 154 136
1.39195 2.71887 17.4297 124 108 94
-1.77098 2.94584 18.3876 159 126 112
-1.51093 2.98911 18.3904 161 132 120
7.68661 3.30351 18.8089 229 204 187
7.44182 3.30264 18.5626 44 28 22
6.70889 -5.6133 17.3615 190 140 113
7.13177 -5.26624 17.5552 108 80 44
6.46249 -4.79398 16.876 120 22 14
4.75422 -5.25416 19.3044 104 86 44
7.20679 -4.62403 17.1568 48 38 26
8.49759 -4.78405 18.5768 121 104 68
4.26553 -3.95237 18.7713 102 77 38
6.27062 -3.07288 15.8756 142 119 112
8.20159 -3.04379 16.164 141 110 91
6.41888 -2.88371 15.7667 187 170 168
7.40359 -2.86359 15.7881 159 136 128
7.90817 -2.84263 15.9658 102 56 28
7.56617 -2.75382 16.0639 137 104 92
4.46999 -2.9856 17.7407 82 68 58
6.32257 -2.58197 15.9277 136 120 114
7.71545 -2.6522 16.3206 155 134 128
5.9848 -2.51318 16.1838 116 92 82
6.75743 -2.62529 16.7375 176 158 156
-3.43306 -3.16974 20.5493 52 30 12
7.6099 -2.45489 16.3505 111 107 94
7.90037 -2.37295 16.2883 106 108 94
5.02417 -2.66647 18.387 158 124 112
6.10345 -2.41612 17.0003 95 70 62
8.1442 -2.27581 16.5415 140 108 87
7.75705 -2.14869 15.9631 154 132 121
5.46965 -2.31585 20.1888 150 142 96
5.43559 -2.26509 20.4733 136 114 70
6.21989 -1.31112 17.1229 122 15 8
6.82629 -1.21606 17.6733 188 135 109
-4.07012 -1.64179 22.2395 94 62 26
6.31842 -1.16307 17.2912 170 86 62
8.23183 -1.05163 18.1609 130 106 66
-4.34239 -1.29937 22.3126 68 28 8
-3.16208 -1.01789 19.9325 123 77 48
-1.68655 -0.97296 20.2825 132 81 62
7.64543 -0.658721 18.0487 174 98 69
7.8621 -0.63914 17.8044 118 100 86
-1.19033 -0.814033 20.4037 87 62 38
