ply
format ascii 1.0
element vertex 1363
property float x
property float y
property float z
property uchar red
property uchar green
property uchar blue
end_header
12.0211 -0.944841 29.0358 96 72 64
-0.473563 -1.40659 33.3428 88 52 29
9.67459 -1.05056 31.4316 114 74 46
11.8659 -0.561043 29.1987 184 134 108
12.2695 -0.483079 28.9069 178 152 138
-10.3063 -0.898803 31.957 35 7 2
12.5624 -0.260485 28.6692 70 40 33
12.2525 -0.21815 29.1625 94 46 32
11.8383 -0.0192885 29.5346 168 124 99
12.3651 0.0328546 28.9597 181 156 140
9.61061 0.307163 32.5082 20 10 4
12.1134 0.579205 29.0843 161 136 117
9.0082 0.562473 33.5321 128 105 78
11.7548 0.972058 30.5747 46 18 6
12.4087 1.20491 29.5128 162 134 116
9.05627 2.74097 32.4528 172 142 127
11.8357 2.81113 28.827 140 90 64
9.29123 3.0115 31.483 138 26 18
-10.7034 2.06902 26.4932 163 132 106
12.3585 3.00006 29.0894 98 56 32
11.0882 3.14403 29.9269 184 158 152
12.9923 3.27009 29.3541 174 148 140
12.2313 3.43534 29.5499 182 152 140
10.7743 3.50051 29.9994 137 94 78
12.8104 3.56519 29.2548 149 108 90
13.8525 3.66012 29.2694 150 121 109
9.784 3.77526 31.0912 102 76 76
12.7301 3.71111 29.3899 134 94 78
-2.66019 3.63226 33.3218 190 137 116
9.47003 4.08837 32.0276 148 130 122
11.2591 4.21665 30.1227 180 150 144
-3.37019 4.22697 33.6498 210 156 121
2.21464 3.73794 26.6155 42 16 8
4.18981 3.96833 27.3081 153 136 120
1.79179 3.94297 26.8289 88 56 44
11.0869 4.73869 30.3019 123 81 81
14.115 4.82758 29.8308 40 26 22
-6.61545 4.4954 32.5966 138 88 67
-0.746002 4.31463 28.7653 130 109 100
2.14797 4.22155 26.7033 81 68 56
11.8978 5.07709 29.7111 31 14 14
4.03303 4.49318 27.2992 158 124 114
-0.641129 4.65358 29.1681 121 98 90
0.804333 4.61176 27.5727 160 88 80
3.75902 5.91696 27.7282 160 31 28
0.43557 6.25258 29.1955 123 86 76
1.0711 6.28201 28.7394 132 116 109
1.39368 6.32537 28.8118 120 103 102
1.02888 6.52955 28.9248 154 125 118
1.45688 6.50577 28.6272 108 84 84
0.744189 6.82556 28.8988 80 48 38
-10.4181 6.85434 28.2087 118 24 22
9.78062 -6.10488 26.5744 112 10 6
9.39315 -5.69884 26.77 109 64 40
9.60635 -5.57559 26.6036 124 89 69
9.05755 -5.74217 28.0129 86 80 68
9.16588 -5.57321 28.4146 82 71 62
-1.35401 -5.82891 32.0493 124 78 61
-1.83048 -5.70756 31.9738 138 86 65
-3.5286 -5.83617 33.0007 46 22 10
-8.19813 -5.09559 30.8901 48 12 2
-3.0811 -5.22845 31.7762 146 72 48
-9.84157 -4.85036 29.9885 155 108 82
-0.171647 -5.01946 33.2575 114 102 62
-8.53484 -4.50473 30.3231 78 28 16
10.9407 -4.20707 32.4622 109 70 29
-0.244037 -4.29827 32.8142 24 6 0
0.055703 -4.28958 32.8072 118 107 66
11.4348 -3.81774 31.87 95 52 20
12.0407 -3.5578 30.1907 117 104 86
-7.89592 -3.81502 31.9032 58 23 10
12.072 -3.37247 29.9022 148 126 112
-0.0349844 -3.7324 32.4888 135 88 60
-9.01869 -3.53775 31.1037 168 102 77
-0.539101 -3.64444 32.4952 136 86 68
-9.06892 -2.85474 31.5047 102 44 26
11.9587 -1.93933 28.6024 27 10 6
-10.9972 -2.47285 31.6912 158 143 123
-10.8265 -2.05851 32.0196 159 104 72
-10.8416 -1.75314 31.5565 94 55 26
9.7728 -1.08317 31.7296 110 70 44
12.257 -0.503513 28.9612 178 152 137
12.553 -0.308422 28.6341 60 30 22
12.3277 -0.247983 29.3736 119 71 53
-6.14309 -0.570968 29.2396 77 26 13
11.7194 0.816296 30.3975 164 121 96
12.0689 0.927525 29.4208 184 154 132
11.6593 0.967308 30.5375 44 20 10
12.6327 1.91287 31.8426 98 64 43
8.90809 2.93661 32.7933 69 48 30
12.9637 3.2506 29.2894 166 136 127
9.64645 3.34976 30.9905 102 74 72
12.1764 3.40685 29.4791 174 146 133
12.3658 3.59289 29.3965 152 120 102
0.904955 3.06961 27.2398 96 23 18
9.73238 3.75141 31.0014 113 86 86
-2.67578 3.58563 33.304 189 137 116
-3.2738 3.66712 33.4575 170 116 86
9.3217 4.05165 32.3216 67 44 35
11.3569 4.03787 29.9735 178 146 134
-3.68401 4.20042 33.5545 204 155 124
10.3955 4.41148 30.9298 152 122 115
13.1383 4.29181 29.4073 184 142 130
2.01631 3.86844 27.4455 80 58 48
2.62581 3.84583 26.4155 93 85 70
11.1677 4.78227 30.4544 126 87 86
11.8858 4.70264 29.921 190 147 93
-10.0044 4.25689 31.6441 99 62 29
11.4785 4.94323 30.3019 32 13 8
-7.22802 4.55688 32.3286 64 28 15
11.6606 5.09057 30.0459 174 147 142
11.98 5.05837 29.9013 32 20 20
3.46746 4.75296 27.0241 144 120 120
3.10392 5.19952 27.1239 137 116 111
1.41984 6.69853 29.6166 90 67 66
9.26055 -5.96147 26.9274 150 122 110
9.39947 -5.72768 26.7486 120 74 51
9.86867 -4.90767 26.0779 124 36 28
-2.60496 -5.82746 31.8291 106 52 29
-8.49985 -5.52303 30.488 52 26 8
-8.18572 -5.1439 30.8218 126 80 60
-1.69397 -5.13391 32.1241 133 82 62
-9.11233 -4.54001 30.4803 172 113 92
-8.57635 -4.51089 30.3088 134 80 64
-2.48981 -4.27764 32.9203 162 104 78
-9.11252 -3.63025 30.9523 151 92 74
-0.518209 -3.70758 32.3682 121 71 52
-9.18483 -3.32645 31.1225 27 8 6
-10.7639 -2.04644 31.6373 171 119 87
-10.445 -1.68802 31.1571 66 28 16
-9.9708 -1.60234 31.5557 102 56 36
-3.16489 -0.481579 31.019 127 76 60
-7.50127 -0.415225 29.8534 152 97 70
12.2116 0.0479005 28.8697 184 157 138
12.6146 1.09595 29.756 98 78 66
11.7545 1.22894 31.3837 22 15 14
12.173 2.54351 29.6052 144 104 84
12.3733 2.89438 29.1114 102 60 40
0.730734 2.56018 26.6937 28 8 7
11.0596 3.16449 29.8054 184 158 152
1.25882 2.65435 26.9391 26 14 11
12.0406 3.35954 29.3555 145 104 84
12.7104 3.64971 29.7387 133 90 66
9.4149 4.00874 32.4379 78 70 57
-5.54205 4.03031 32.7523 46 16 11
-9.73694 3.97359 32.4295 170 122 100
11.0865 4.49514 30.2646 110 50 50
4.03566 4.41747 27.0822 146 118 108
3.39659 4.59418 26.9818 135 116 115
2.88349 4.80223 26.7388 68 50 44
1.30298 5.07334 28.1678 89 73 68
1.71195 6.36178 28.8952 60 20 20
1.40102 6.95896 28.9645 82 48 40
-9.95616 -4.98055 30.1019 162 113 89
-9.14669 -4.23041 30.4018 121 70 56
10.5657 -2.23129 30.8672 125 112 90
-10.7331 -2.02013 31.8857 205 150 111
-0.536381 -1.6887 33.0806 28 2 0
-10.8459 -1.60148 31.9373 167 138 111
-4.13836 -0.697965 29.6968 144 91 77
-11.3917 0.246685 24.6258 62 30 30
-11.4272 0.296755 24.6206 48 22 21
14.6133 1.56032 29.8154 65 48 35
1.99621 2.29331 27.4826 140 96 72
9.56225 4.10938 32.3197 138 125 115
11.721 4.5181 29.6393 164 103 74
1.70608 6.43709 28.664 85 49 50
9.98596 -5.34562 26.1798 126 88 72
-9.68164 -5.52234 30.1469 122 81 57
-9.05692 -4.88636 30.1723 92 45 30
-8.10917 -4.60205 30.3766 127 72 54
-3.03554 -4.63406 33.5157 158 142 102
-10.7667 -3.29371 31.6929 116 92 68
-10.8536 -2.43068 31.7353 149 126 104
-10.7918 -2.34451 31.7612 48 20 10
-3.76588 -1.09183 29.9853 90 43 26
-11.2725 0.617914 25.8633 146 103 82
12.2894 1.65184 30.2989 101 69 48
1.39495 4.9271 26.8283 50 28 20
1.66861 6.42006 28.5959 72 37 36
0.871052 6.89997 28.8669 99 68 59
9.90862 -5.62981 26.0202 134 94 74
9.95264 -5.33905 26.1527 124 82 63
9.18235 -5.44741 28.0879 77 60 54
-9.04912 -4.87171 30.1631 110 60 45
-9.95851 -4.33522 29.8614 158 110 90
-9.05407 -4.02865 30.2722 116 62 47
-3.08256 -4.29273 33.5524 152 106 72
-10.7887 -3.28215 31.7472 125 108 78
-8.87754 -3.12106 31.3421 194 138 104
9.69334 -2.49608 30.5457 91 70 54
-10.7657 -2.51079 31.7853 80 40 22
-11.0914 -1.92535 31.6611 118 96 68
12.9822 -0.888481 28.616 24 12 11
11.5658 -0.280473 28.8472 58 18 6
-11.6168 0.374143 24.3658 148 94 97
-0.588255 4.61621 28.8494 114 88 81
1.0346 6.46723 28.7021 149 125 119
9.36712 -5.73539 26.7239 105 68 51
-9.62903 -5.48947 30.025 112 73 50
-9.54555 -5.45818 30.2638 132 90 68
9.64139 -4.67468 27.4646 160 134 120
-9.0951 -4.25839 30.2621 140 84 67
-0.0702662 -4.08767 32.8819 51 24 8
10.0017 -2.45198 30.7403 128 93 74
-0.0187713 -2.46943 32.4105 55 23 8
-10.7496 -2.51349 31.7821 61 26 10
-10.9062 -2.44938 31.7801 158 140 116
-10.7588 -2.35743 31.805 40 10 2
-11.0831 -2.11716 31.6703 143 122 94
-11.4675 -0.0364087 24.5817 135 66 68
-11.6327 0.378898 24.4385 156 114 116
9.74006 3.3054 31.0263 94 68 64
11.1187 4.76816 30.2095 49 16 12
1.44623 4.8157 26.8406 37 19 11
1.4457 6.30822 28.799 181 168 170
9.63549 -5.56453 26.6461 130 98 79
-2.40885 -6.75561 31.9058 92 59 42
-10.2324 -4.62258 30.1299 52 21 8
-8.47299 -4.5323 30.3228 84 32 16
-9.09 -4.00319 30.5128 120 60 43
-11.9339 -1.52852 24.4679 40 38 60
-11.1085 -2.12979 31.7843 152 133 106
-12.0281 -1.19602 24.6255 150 136 124
13.6732 0.216748 29.4969 104 60 46
-11.6249 0.374333 24.4388 158 114 117
1.01265 6.927 28.976 131 100 92
9.89446 -5.41363 26.3588 99 48 25
-9.00472 -4.94478 30.1403 107 60 47
-10.3248 -4.86417 30.1635 108 68 41
-9.00619 -4.36972 30.2129 178 118 100
-0.656621 -2.95922 32.4977 138 90 70
-7.99364 -2.80163 31.4972 156 109 88
-0.10998 -1.80585 33.2274 106 59 32
-6.80536 -1.0894 30.351 76 33 15
-9.90655 0.540492 27.4546 117 20 8
10.5186 3.39803 30.2183 156 124 111
12.1386 4.80458 30.2557 178 136 97
11.6187 5.00108 30.683 62 32 28
11.902 5.16077 30.5843 134 109 104
1.01273 6.94443 28.9655 131 100 92
-9.55875 -5.4785 30.1528 137 96 72
-10.3159 -4.89395 30.217 106 67 42
-9.10701 -4.43167 30.4398 143 89 71
10.7489 -3.88027 32.2924 158 154 106
-7.76479 -3.57623 31.8147 50 16 5
-7.91935 -2.76381 31.3004 160 115 94
-10.7254 -2.4156 31.7749 36 9 4
-10.6862 -1.65042 31.7404 49 14 4
9.49666 3.21266 31.422 154 108 100
4.06 4.51777 27.2803 154 130 117
1.25554 7.00327 28.8935 88 56 50
-0.263916 -4.30242 32.9116 44 18 9
-9.0406 -3.9313 30.4525 172 110 88
-10.2729 -0.954117 31.4103 49 18 7
10.6666 3.4374 29.9328 146 110 98
9.64784 3.74048 31.153 88 60 62
-8.05634 -5.52687 31.4276 52 26 7
-8.08157 -5.32349 31.4351 82 40 22
10.0189 -1.36143 31.1791 54 14 1
-5.61709 -0.596799 28.2775 136 86 69
-11.4816 2.75002 26.0098 108 102 110
-11.536 2.80998 25.9211 83 78 88
11.148 4.25031 30.0557 120 60 60
1.49397 4.84351 26.7814 78 54 48
1.32957 4.94353 26.8256 66 45 38
1.4184 4.9425 26.8397 66 42 36
-12.6039 4.67679 26.4303 112 31 8
-8.19432 -5.36407 31.3313 149 102 82
-10.8246 -1.97825 31.4921 175 126 99
10.2174 -0.0153853 31.9112 154 125 104
9.01689 1.08974 33.4723 134 104 74
1.24099 4.77513 26.8466 76 56 47
-2.5114 -5.96279 31.8667 176 114 94
-9.62062 -5.48892 30.0454 124 80 58
11.8966 -3.11706 30.2453 82 76 52
-10.7628 -2.35598 31.7546 52 20 10
-9.96528 0.549064 27.5891 110 43 14
-11.945 2.86881 25.786 113 106 120
1.49034 4.76817 26.8352 62 41 34
1.34616 4.92195 26.8765 35 16 8
-8.19454 -5.00968 30.6738 64 21 7
-9.08151 -4.2934 30.36 170 108 86
-10.8277 -1.97651 31.5674 188 138 110
10.0224 0.885605 32.631 158 118 100
0.927873 3.10367 27.0865 58 8 4
-7.2647 4.59752 32.4968 52 15 8
0.479578 6.48728 29.2569 82 48 42
-2.06256 -6.28422 31.961 120 76 62
-9.86317 -5.22603 30.4718 154 107 81
-1.59364 -5.04703 32.0906 130 79 64
10.3104 -3.11302 31.4942 96 32 18
-6.03651 -1.21842 29.2202 223 169 130
11.3821 1.10496 30.0321 116 91 77
2.27427 3.75023 26.6897 38 12 4
-10.7956 3.99705 27.3301 127 24 20
-11.168 5.39781 28.3961 152 104 94
9.67296 -6.61513 27.4403 99 18 10
-2.17891 -6.99935 33.2767 107 72 56
-1.61006 -6.15679 31.7801 104 63 52
-8.9783 -3.47836 30.9608 158 96 75
-10.6652 -2.81229 31.7976 166 112 85
-0.746075 -2.27478 32.4641 135 85 64
-10.9454 -1.58181 31.8709 161 140 116
-9.90282 -0.298812 32.1037 117 82 63
2.69583 4.55944 27.1709 144 127 116
-9.08364 -3.54224 30.7526 126 71 55
-7.44335 -0.653329 29.8234 144 94 72
-9.81327 -0.514351 30.8971 92 42 22
10.8822 3.10925 30.8786 184 159 150
2.12155 3.65193 26.2425 40 12 4
1.67578 4.32533 26.6527 137 120 114
-11.2406 5.14605 28.2071 119 31 17
-11.1699 5.39078 28.428 150 102 92
-8.42994 -5.49097 31.0451 144 94 72
-0.839142 -3.36726 32.4446 60 20 12
-10.9393 -1.21347 32.0687 112 82 56
-0.550859 3.40305 33.5046 147 109 92
2.65887 4.49634 27.1359 140 122 112
10.6084 -5.95638 25.5898 199 162 139
-7.91905 -5.45982 31.2665 85 57 20
10.9953 -4.6308 31.8095 174 146 102
10.3857 -2.70477 24.9279 158 128 114
12.3183 -1.92146 28.2006 162 73 50
10.501 -1.97113 31.1693 138 94 73
12.0444 -1.50519 28.4378 117 108 106
12.9797 -1.32309 28.2216 59 26 14
10.1196 -1.4676 30.9636 112 78 63
12.5818 -1.0122 28.5814 55 50 56
12.3255 -0.495319 30.5927 108 51 22
12.4819 -0.278322 28.6225 127 90 75
12.1305 -0.159234 28.7172 74 32 14
-11.4656 -0.0056535 24.8794 154 110 108
-11.3471 0.198498 24.6961 158 126 124
-11.4549 0.398014 24.6847 152 123 121
14.6035 1.1287 29.7934 54 26 12
12.6052 1.13154 29.7516 65 46 38
-11.3762 0.63224 26.1145 152 110 92
12.3672 1.31728 29.5873 118 103 92
-10.7028 2.02015 26.4218 168 131 104
12.0736 3.16033 28.9692 164 122 99
12.5863 3.20099 29.2226 198 154 134
9.66471 3.35247 31.4387 144 114 111
15.1668 3.6747 29.6846 92 70 60
-11.8012 2.42295 25.6399 118 112 120
-11.7974 2.49811 25.733 92 88 98
15.9176 4.0258 30.4769 104 82 70
-11.542 2.70903 25.9014 90 85 95
-11.8864 2.79754 25.8322 26 22 31
-10.7544 4.03275 27.319 120 53 42
3.06489 4.97893 26.7259 94 76 68
-12.2871 4.66676 27.2025 162 120 102
-12.5899 4.65031 26.5464 140 80 36
-13.3199 5.58772 27.348 138 56 31
-10.413 6.92617 28.2312 114 31 28
-12.2886 7.58755 26.9598 128 24 26
12.3717 -6.44995 25.9196 41 21 7
10.6493 -5.97637 25.7209 177 140 116
12.2173 -5.67869 25.5801 238 223 218
-9.78139 -4.83017 29.8616 172 124 94
-12.0709 -1.35546 24.6138 86 81 85
13.9867 -0.454016 28.5958 91 48 26
12.6325 -0.270071 28.4891 40 17 14
-4.09955 -0.407515 29.8698 98 40 23
14.2519 0.91131 30.2144 26 12 4
13.9063 1.03527 30.007 18 10 6
-10.5271 0.722153 26.9156 162 140 112
12.9176 1.44846 30.0168 24 11 6
9.45206 3.06644 31.6053 124 36 29
10.62 3.10611 29.9521 172 140 128
-11.5551 2.70456 25.936 48 43 56
-11.6018 2.83429 26.2001 102 100 106
14.9091 4.13101 29.5401 152 118 106
15.6618 4.51825 30.3802 184 160 145
1.213 4.6143 27.3752 100 82 76
2.45128 6.40182 29.2949 103 22 20
12.3373 -3.09551 28.2185 116 26 19
-7.64889 -3.53248 31.7449 56 17 2
11.507 -2.80185 31.7825 69 49 14
12.4433 -2.06974 27.7622 170 100 73
12.4676 -2.15422 30.1108 191 162 149
-11.0564 -2.09924 31.5955 132 108 80
13.5548 -1.2763 28.7488 81 24 2
9.84968 -1.36143 31.7869 81 38 12
-6.26836 -0.820406 29.4017 88 32 11
-9.71838 -0.392729 32.1442 44 13 6
-11.5397 -0.0421272 24.9105 138 68 68
-11.361 0.17921 24.6889 158 132 132
-11.3836 0.262993 24.5458 69 35 34
-11.4844 0.387508 24.7309 152 130 129
-11.2069 0.849225 26.5481 77 25 6
11.8617 2.62519 29.5806 140 102 85
1.98744 2.29394 27.4207 132 86 62
-10.7083 2.03191 26.4156 169 128 104
11.0196 3.07532 29.7432 180 148 136
12.0663 3.12877 28.9741 149 103 82
12.6458 3.3093 29.2811 109 64 42
-11.7985 2.4289 25.627 100 91 100
-11.5881 2.77959 26.2134 118 114 122
10.3994 4.43809 30.8114 119 88 84
2.64268 4.21425 26.6621 80 42 30
-11.7332 3.7576 26.4777 46 23 34
-11.2617 4.21773 27.1232 132 64 30
-12.3213 4.69498 27.2976 144 90 72
-12.1692 5.16788 28.0435 84 18 7
-12.3899 5.30428 27.5233 108 28 10
-12.2594 5.44407 28.1319 148 114 100
-12.3067 7.57849 26.978 124 18 20
12.3552 -5.71389 26.047 94 69 63
-3.03894 -5.24733 31.7773 100 30 10
-9.05986 -4.87036 30.198 92 43 32
11.9642 -3.55123 30.4276 96 94 56
11.8685 -2.98418 27.9578 120 39 24
-11.0903 -1.9223 31.6506 130 106 78
13.5043 -1.25811 28.6594 82 22 1
9.94948 -1.36658 31.1718 55 19 8
-5.93337 -1.36729 29.1353 216 165 124
14.1566 -0.670251 28.5989 173 146 126
-3.91104 -0.936365 29.7955 176 124 108
11.7343 -0.513603 28.9877 187 142 116
13.9694 -0.454326 28.565 83 40 19
11.972 -0.344598 28.9087 150 110 90
-4.20964 -0.604381 29.7654 174 118 100
-4.31647 -0.317555 29.9013 164 109 90
-9.74088 -0.39806 32.1095 46 13 6
-11.4047 0.179735 24.7649 156 137 136
12.286 0.90591 29.277 176 150 137
-11.4698 0.407818 24.6287 152 131 132
-11.5643 0.428888 24.4576 160 125 126
14.5285 1.13986 29.6359 80 54 38
13.0567 1.33134 29.8519 84 39 14
14.2077 1.61224 29.9194 107 60 41
-10.6824 2.02585 26.3687 165 122 97
14.3797 3.32894 29.1382 153 100 83
-11.5922 2.77249 26.1823 116 111 119
-11.9318 2.85722 25.7424 96 90 102
-11.4201 5.63809 28.6149 138 68 33
-13.1579 6.13798 27.6516 185 98 61
-11.455 7.28533 27.7737 118 65 62
9.75131 -6.03783 26.4169 115 8 3
9.31045 -5.98942 26.9269 146 115 100
9.69873 -2.53271 30.649 120 96 80
10.6543 -1.75857 31.7221 146 112 94
9.92854 -1.49212 31.5434 158 120 98
-0.436904 -1.39758 33.1778 87 56 31
-3.90799 -0.937676 29.9283 174 122 106
-10.3334 -0.937762 31.2517 89 45 22
11.763 -0.302164 29.367 100 53 30
13.8891 -0.258769 28.6995 172 134 114
9.73284 0.276974 32.8125 28 16 10
-11.626 0.157153 24.3418 148 93 94
9.89008 0.562189 33.0135 131 104 80
13.9475 0.692641 30.2307 67 41 26
14.1505 0.746291 29.9423 134 109 88
9.40608 2.27973 31.5796 156 88 64
-10.7047 2.03721 26.4409 165 122 97
12.6881 3.34835 29.364 120 74 52
13.9234 3.63585 29.3591 152 123 109
0.930362 3.10559 27.2003 80 16 12
-11.5977 2.76748 26.0954 102 96 106
-11.9177 2.85834 25.7027 106 101 112
-11.5306 2.91007 25.9068 26 22 36
4.1771 3.98102 27.3832 152 126 112
-10.1184 4.62517 33.0517 163 114 88
2.16747 4.21724 26.6937 70 58 44
-11.3006 4.23198 27.2845 124 53 27
3.47562 4.89558 27.0737 146 125 124
-12.1527 4.64161 27.4677 164 128 116
-12.1111 5.17214 27.9088 84 12 5
-12.3819 5.34739 27.4971 112 25 8
-11.3992 5.66115 28.4937 140 78 33
-13.2548 5.61163 27.2492 144 58 44
-12.9622 5.56878 27.0488 166 78 44
-13.09 6.36509 27.7544 163 76 32
-12.4185 7.61584 27.2276 135 21 22
9.58244 -5.53346 26.5199 145 110 94
-8.0772 -5.61914 31.5505 44 26 8
-3.07771 -5.28312 31.895 134 62 40
12.4919 -3.23062 30.3823 83 83 63
11.9801 -2.97531 30.6646 114 109 74
-10.7213 -3.05281 31.6689 75 36 20
11.9015 -1.72873 28.9238 70 46 36
9.85988 -1.35535 31.8947 103 59 30
9.71612 -0.29881 31.9342 86 63 27
13.0264 0.418728 29.7461 98 64 40
-11.2015 0.852997 26.5283 76 20 2
9.04434 2.85125 31.8753 116 36 28
0.920525 3.09335 27.1621 72 14 8
11.4265 4.09842 30.0257 136 97 83
-11.9653 2.85364 25.8153 106 101 112
-11.8837 3.84219 26.3039 21 14 28
-11.2732 4.0212 27.0042 82 4 6
-12.3193 5.33984 28.5811 86 10 2
-12.417 5.40143 27.5484 114 28 8
2.30878 6.40069 28.9459 57 18 17
9.58206 -6.54214 27.1651 108 13 4
-10.1065 -4.39992 30.3825 158 112 90
11.9701 -3.12301 29.5586 82 81 62
-11.0485 -1.5889 32.1385 160 144 119
10.2836 -1.19562 31.9895 148 112 94
-7.91284 0.683985 32.0391 177 128 100
9.03407 2.6793 32.3434 166 142 128
1.33923 2.73386 27.1256 28 14 12
-11.5692 2.7368 25.9507 92 87 96
-4.58342 4.07633 34.0389 77 30 16
-0.575767 4.39516 29.3069 109 84 74
0.747966 4.48965 27.249 155 38 36
0.754169 4.66708 27.3933 153 51 46
-11.6211 5.02183 27.3234 158 101 32
9.87778 -5.59114 25.8951 135 98 76
-2.22042 -6.18732 31.3609 157 104 84
-9.6426 -5.51492 30.3261 126 84 64
-10.2577 -4.97257 31.075 44 17 8
11.965 -3.45642 30.6166 134 134 90
0.506581 -2.81612 33.159 106 75 42
-3.89093 -0.955753 30.4287 171 120 104
12.3021 1.81172 30.3884 158 125 104
-3.41579 4.20422 33.5282 200 147 107
-0.635296 4.39576 28.8664 128 104 98
-0.00123793 4.38491 27.9063 158 134 116
-11.2464 5.10691 28.1101 140 83 40
-12.1977 5.28957 28.203 86 7 6
2.24077 6.3199 28.654 58 16 14
13.7506 -8.36739 27.5991 148 119 90
15.6321 -3.67444 30.6853 122 94 78
12.1389 -1.91805 28.3925 111 50 30
11.8389 -1.65834 28.8084 74 52 44
11.7922 -0.344068 29.5739 76 27 7
-10.3058 1.63918 27.029 162 140 110
14.6557 3.99466 29.3914 92 50 38
-12.3898 5.30663 27.5453 100 20 8
-12.2708 5.49002 28.1761 141 93 78
11.8623 -2.40486 27.9744 146 52 26
10.3052 -2.23964 30.9032 130 78 56
-4.33446 -0.293849 29.9943 158 103 84
11.5961 2.76185 28.1595 166 120 97
-4.8766 4.04471 33.8797 84 50 41
11.4151 4.47283 29.7172 128 46 48
-13.0407 5.63926 27.2112 167 74 50
2.73579 4.55583 27.1539 168 150 142
-12.1115 4.60407 27.4337 150 88 78
-8.44889 -5.57761 31.7244 152 104 80
12.0576 -3.55836 29.9564 90 82 64
9.62794 -1.37019 31.7995 146 123 98
-12.1059 4.62399 27.4243 164 122 108
-13.0714 6.37253 27.7232 179 106 42
-1.86913 -6.5595 31.9555 95 54 38
9.75992 -1.0606 31.6116 98 56 31
-11.8291 2.69524 25.8313 20 16 29
-11.7616 3.80559 26.3755 27 14 25
-12.2685 4.66933 27.2247 153 106 92
-11.2327 5.09673 28.3127 107 32 10
12.1863 -2.19679 27.9731 162 62 37
11.9254 -1.22604 29.1282 124 96 84
-10.8144 -1.74554 31.8121 87 44 15
13.533 0.0222659 28.7976 168 136 116
13.3154 1.82144 29.9204 128 110 94
11.9098 2.95036 29.7041 102 54 30
3.25727 4.97185 26.9807 138 122 116
-12.1362 4.62827 27.381 164 126 113
12.3318 -2.66924 31.3482 112 93 73
-7.50972 -0.351587 29.794 154 100 73
9.86006 0.813695 33.0599 93 58 28
11.2709 1.20348 30.6881 25 15 10
-10.732 2.0811 26.5338 164 127 103
-11.8416 2.53117 25.6377 101 94 101
0.251958 3.62274 28.435 148 106 91
-0.675145 4.66437 29.4363 120 95 88
3.22797 4.9647 26.9646 138 121 114
-12.2321 4.72402 27.5463 156 134 120
1.39988 6.37067 29.0778 110 82 84
9.67867 -6.07579 26.2167 114 8 7
-10.9947 -1.58593 31.712 162 146 123
-3.53631 0.135389 33.4159 168 118 93
10.7038 0.478998 33.0343 132 103 82
9.06348 0.782131 32.1067 110 68 43
-11.2303 0.550782 25.7898 151 126 106
12.1221 1.29091 28.7282 31 19 15
11.8884 4.64961 29.7017 190 146 88
11.3628 4.81765 30.0614 70 32 32
-10.4855 6.84892 28.3225 126 17 18
13.4492 -8.64284 27.5289 40 22 8
10.568 -1.53928 31.3626 53 21 4
13.5315 -0.904706 28.7824 116 68 52
-3.09742 -1.0499 30.7735 76 24 6
0.682376 1.99173 27.0377 160 112 91
-12.144 4.64078 27.5214 160 118 100
9.7384 -0.253849 31.925 86 61 33
-11.9971 2.90389 25.8908 103 98 110
-13.316 5.62468 27.3798 140 61 31
11.41 -4.29207 25.4573 112 86 76
12.5018 2.17154 30.5354 173 134 110
11.4601 4.48685 29.7895 130 48 51
-11.8157 3.82888 26.5828 35 17 29
-4.18491 -0.854197 30.1082 79 30 18
3.4044 5.05508 27.5194 142 120 113
13.1786 1.4453 29.9883 128 84 53
12.0493 4.7795 29.8328 196 150 106
-12.4729 7.66986 27.371 136 20 26
-2.2648 -6.27172 31.6524 163 108 88
-9.91291 -1.61317 31.5458 99 52 35
12.0897 0.547732 29.0479 153 126 112
0.729203 1.91727 26.5105 163 132 108
2.37918 4.63906 27.0708 136 56 48
2.31826 4.73888 26.8739 152 66 60
-11.4946 5.72655 28.6258 130 74 26
15.6041 0.413644 36.55 146 98 78
9.34545 -2.21003 30.5604 60 26 14
11.4554 -4.40879 25.6649 152 128 120
11.2873 1.23879 30.0939 29 16 11
1.39545 2.64785 26.8003 42 12 6
-11.7355 2.395 25.7957 20 15 30
-10.9609 -1.29415 32.0191 136 113 89
10.6751 -1.88728 31.4134 134 90 68
11.123 -0.875605 31.069 124 112 88
3.87835 5.99022 27.7972 136 70 61
-2.90745 -6.54183 32.2234 108 68 52
-9.78593 -4.84269 29.9708 169 120 96
12.1913 4.26176 29.4014 123 112 108
-2.65237 -5.79688 31.8389 106 49 28
-0.521355 -3.61098 32.1578 140 92 74
-6.01675 -1.2444 29.2741 212 160 120
-10.6493 -1.30879 32.1435 172 116 90
-10.45 -0.671353 32.1287 104 78 58
13.2304 4.35832 29.5034 140 76 70
-0.398997 4.36321 29.2796 116 94 86
1.43929 6.29325 28.7367 147 114 114
-9.81359 -4.84686 29.9648 176 126 100
-0.528688 -3.63536 32.3351 146 98 80
-11.0408 -3.2857 32.2055 154 144 115
-0.709198 -2.95172 32.2186 150 104 87
0.144106 -2.1305 32.7239 89 70 44
11.0451 4.6605 30.3232 121 86 82
2.40838 6.46302 29.0492 62 14 15
-9.86896 -5.17554 30.5096 102 63 42
-8.85808 -5.11492 30.2352 54 23 12
-10.9847 -2.76227 31.6074 135 114 90
-10.7469 -2.37875 31.7686 32 8 1
-10.0815 -0.895433 32.0092 125 78 63
12.5357 3.48377 29.1899 150 109 94
10.3636 4.42244 30.8287 125 98 90
-2.16182 -6.12512 32.1756 166 109 86
-10.9053 -3.285 31.7507 130 122 86
9.54239 3.25597 31.4777 153 116 110
-9.09083 -3.94345 30.5966 154 96 76
0.333249 -3.38604 32.9431 48 28 8
0.0402627 -2.84709 32.1884 158 106 81
-9.10348 1.02752 27.8915 128 19 16
9.06683 2.6888 32.4486 160 132 116
11.0751 3.17242 29.9196 172 146 139
-0.0610388 -3.3928 32.5609 28 8 2
2.81546 5.70102 31.3867 126 99 95
12.6774 -0.211302 28.7551 24 6 2
12.3067 -0.181868 28.8303 68 29 16
14.247 1.61013 30.0769 90 42 22
12.3171 1.65556 30.3012 86 57 41
12.6872 3.28454 29.3304 126 81 61
14.3264 4.05758 29.4246 184 158 143
12.0516 5.19237 30.0908 40 24 20
-0.780176 -3.01288 32.3668 106 61 44
13.9871 -1.00838 28.5801 184 141 116
14.2388 1.60415 30.078 100 56 36
13.1977 1.78529 29.6192 129 110 94
13.6605 -0.728882 28.8103 130 76 54
13.6905 -0.469846 28.6611 124 76 58
12.7715 -2.17422 27.4624 138 92 64
-1.8715 -6.5248 31.8744 92 56 41
-0.0715131 -2.37215 32.8081 28 8 3
-9.14182 -4.15475 30.3483 99 54 43
-0.681034 -2.95516 32.5679 146 102 84
12.5024 0.238383 28.9233 124 93 78
12.1923 4.28507 29.4571 100 104 95
-10.0817 -4.40752 30.4316 102 67 48
-2.19838 -6.18772 31.7425 162 102 83
12.7867 -9.64827 27.3354 252 214 192
13.0988 -9.62295 27.3543 219 172 148
12.5069 -9.30601 27.7933 156 136 96
12.1842 -8.83234 27.7563 158 129 92
12.2868 -8.75531 27.6833 137 84 52
13.5135 -8.62247 27.4756 38 22 8
9.96091 -9.33628 31.2501 95 77 38
9.46796 -8.51453 30.3527 120 97 70
9.62659 -4.97547 27.1661 136 62 56
11.5058 -4.65263 25.6629 167 141 133
-8.15177 -4.96128 30.6439 60 20 10
15.9825 -3.63531 30.8305 113 68 37
-7.59778 -3.49728 31.8492 66 26 4
-0.989919 -3.02358 31.9155 103 58 45
12.5748 -2.20219 27.895 90 28 8
9.64048 -1.59482 31.7614 64 35 11
-6.27321 -0.811789 29.3968 82 28 8
-10.282 -0.324225 32.4897 100 67 45
12.9856 0.33434 29.4697 106 68 42
11.5837 0.910329 30.0368 56 30 16
11.6438 1.08054 30.418 165 136 122
14.7406 4.10456 29.3537 161 130 114
14.6212 4.25149 29.6108 104 76 63
-11.1642 3.64924 26.7371 42 16 20
2.38211 4.62486 27.0787 174 128 118
2.77166 4.7489 26.7258 150 132 127
3.255 5.68997 27.543 62 18 15
12.765 -9.63314 27.2741 206 160 138
13.4282 -9.17534 27.5584 137 111 68
12.9223 -8.54696 27.2097 58 32 19
11.4191 -4.79441 25.474 91 64 56
-9.66123 -4.75119 29.8427 118 76 54
15.8752 -3.71022 31.0066 85 60 48
12.0958 -3.42188 30.0653 118 105 90
12.1287 -1.71375 28.535 44 40 42
11.837 -1.65753 28.7716 67 47 40
-5.94155 -1.37136 29.008 220 167 124
-5.23554 -0.177141 29.5087 60 18 5
10.1049 0.365253 32.776 91 58 24
11.5262 1.03368 30.0854 60 36 26
11.3456 1.08407 30.0549 94 75 67
10.8149 1.572 31.4227 100 84 64
16.501 3.10261 30.7231 130 104 88
12.3436 3.42027 29.5934 179 145 131
15.0114 4.16988 29.7167 176 148 134
11.1993 4.29607 30.2802 164 116 115
-6.45203 4.45869 32.1503 146 96 76
13.1217 -9.63634 27.3426 198 151 124
12.4907 -9.30801 27.7353 158 142 99
13.4593 -9.17958 27.5903 138 115 70
13.0498 -9.02569 27.6001 202 154 128
12.6804 -8.87709 27.6346 175 125 94
12.3397 -8.80137 27.8751 130 85 50
12.935 -8.54259 27.2144 50 24 13
8.96377 -7.74216 29.4902 108 73 38
-8.18034 -4.9817 30.7178 56 16 8
11.5994 -4.16985 31.7602 113 82 41
12.0588 -3.3151 29.9182 149 126 113
-7.64312 -3.52322 31.8794 54 17 1
12.1497 -1.93795 28.4275 136 54 34
9.78745 -1.39574 31.4928 78 35 15
-10.9181 -1.4318 32.0022 152 131 106
13.0255 -0.848501 28.1508 103 55 42
9.67408 -0.312851 31.7261 86 60 30
-5.31099 -0.0613376 29.4512 129 85 73
12.9785 1.16538 30.0495 147 123 110
13.0388 1.29603 30.6148 95 76 65
10.8579 2.92933 29.6804 120 70 48
10.4862 3.35024 30.0258 132 96 81
3.04223 4.56483 26.6813 100 84 80
1.2577 4.83912 26.8901 54 34 28
12.4886 -9.33544 27.7794 154 146 99
12.7285 -9.03197 27.5501 198 145 120
13.3223 -8.56428 27.2171 60 38 20
9.12006 -5.56479 27.8281 106 92 78
-3.37918 -6.04949 32.9604 162 112 86
-8.20436 -5.00742 30.6963 56 18 10
12.0804 -3.34263 29.9309 149 126 113
16.071 -3.37301 31.5232 143 114 89
12.1586 -2.95366 30.0636 140 122 107
0.166144 -2.7893 32.3444 148 105 80
-11.0306 -2.72292 31.8044 139 117 92
12.0846 -1.42586 29.2038 142 112 98
13.0439 -1.32969 28.3767 44 17 7
-10.9278 -1.17977 31.992 108 81 56
-6.22979 -0.778979 29.3233 76 22 6
-5.74174 -0.618213 29.008 174 122 105
-5.42624 -0.317347 29.2343 159 110 92
10.4689 0.143967 32.4112 70 50 37
13.0314 0.34853 29.6312 105 70 46
12.1861 0.593078 29.2293 139 112 96
14.1476 0.730155 29.269 82 55 39
12.7178 3.73233 29.4196 139 104 90
9.55525 4.11224 32.1699 144 131 122
1.44919 4.46024 26.7071 72 58 52
1.37057 4.95491 27.0811 48 28 20
3.23726 5.66833 27.4625 68 26 22
12.5939 -9.4175 27.1579 168 110 80
12.3766 -9.28168 27.5949 154 146 99
13.1153 -9.2127 27.3613 96 48 22
12.9874 -9.03576 27.5649 167 116 92
12.6742 -8.85129 27.6043 160 108 78
13.2405 -8.59995 27.2632 55 42 26
9.14446 -7.14622 29.398 118 92 62
11.994 -5.74304 25.566 183 168 162
12.5683 -5.73604 25.6252 224 208 202
-2.96672 -6.50344 32.2724 109 60 44
-1.28871 -5.32992 32.0708 79 44 28
-10.1802 -4.62869 30.1549 46 18 8
-7.49423 -3.23032 31.7116 132 90 65
-9.00893 -3.15873 31.6598 178 120 93
13.4808 -1.00167 28.6258 128 70 48
13.9074 -0.253869 28.8156 150 113 92
-10.276 -0.441927 31.8465 120 92 68
10.2315 0.25258 31.9256 38 22 10
12.9966 1.15872 30.2173 156 134 123
8.9218 2.92734 32.8519 83 60 46
11.8744 2.82265 28.9804 142 93 70
1.65955 3.88253 26.5745 104 56 43
3.47301 4.6098 26.9589 156 106 100
12.701 -9.0339 27.5089 170 117 91
12.6474 -8.83826 27.5599 162 112 81
12.3122 -8.68135 27.5695 118 39 22
9.10466 -7.6844 29.6401 136 112 85
11.4989 -3.80196 32.071 98 52 26
-11.0571 -2.75667 31.9085 129 105 81
12.3107 -1.9652 28.6553 172 73 44
12.3216 -1.17871 28.8276 65 60 60
-11.0143 -1.17047 32.2132 150 128 102
-2.8428 -0.956316 30.7613 141 94 72
-5.87348 -0.517513 29.4309 192 134 116
-3.50498 0.148496 33.2261 172 124 100
-9.95296 0.573213 27.591 113 30 8
12.9073 1.14054 30.1014 164 142 131
1.16056 4.75399 27.5779 116 104 98
9.0768 -7.88158 29.699 131 100 72
9.25718 -5.93943 29.0787 90 84 67
-4.14483 -3.42364 34.9235 128 88 58
-11.0018 -2.81519 31.6929 130 109 83
-0.170067 -2.41936 32.2552 22 6 4
0.132937 -2.34352 32.7791 112 88 68
12.1452 4.28933 29.5103 90 108 94
11.043 4.44595 30.1822 108 48 52
-9.74684 4.53977 32.3357 198 143 114
-0.64077 4.50918 28.9676 118 93 89
1.79738 4.79876 27.063 138 118 112
10.8939 -5.60308 25.2429 118 71 42
-10.6206 -2.81113 31.6044 138 88 62
-0.653763 -1.78243 33.1723 24 6 2
12.8752 0.41006 29.4964 112 77 59
12.2007 0.507567 29.1885 154 128 111
12.2077 0.862197 29.6432 183 154 134
3.40183 4.88923 27.0492 145 124 124
13.2765 -9.59611 26.9791 166 132 100
13.3968 -9.16077 27.4567 154 136 90
12.7032 -8.8251 27.5716 218 168 144
12.9403 -8.57202 27.248 44 22 10
13.425 -8.534 27.1862 166 134 110
13.7946 -8.15438 27.3431 172 156 142
11.7117 -8.65422 29.2168 106 88 52
17.0962 -8.49242 29.0396 98 75 42
13.9115 -7.78476 27.0275 76 74 64
16.8243 -8.63997 30.3878 112 92 56
9.17713 -8.56259 30.6634 140 117 76
17.409 -7.66835 28.3405 134 120 73
17.1097 -7.48288 28.0183 148 126 93
9.05028 -7.78162 29.6823 105 72 35
12.3615 -6.44878 25.9026 30 15 4
16.8505 -6.83729 27.3464 158 128 101
8.75783 -7.03669 29.1296 160 129 105
9.59066 -6.47571 27.1676 92 14 6
8.83265 -6.91955 29.4143 86 64 38
12.8182 -5.78176 24.518 58 36 18
11.6283 -6.09672 26.1751 171 126 102
13.9057 -5.68278 24.7607 98 68 50
9.75925 -6.01839 26.4572 90 14 2
11.3084 -5.54246 24.4474 245 230 220
12.3339 -5.58709 24.7509 189 164 158
12.733 -5.64075 25.2992 164 142 133
16.6472 -6.00245 26.869 111 89 58
11.8856 -5.68985 25.7295 180 155 146
11.7921 -5.59636 25.2839 98 77 68
14.7321 -5.4268 25.0632 160 112 85
11.5496 -5.31586 24.8765 188 166 157
16.3677 -5.67663 26.6042 108 100 68
16.0305 -5.55249 26.1014 128 118 92
14.0392 -5.27525 24.9658 152 116 101
8.98347 -6.01925 28.8608 104 90 70
8.8973 -5.81463 27.9599 148 128 112
12.0388 -5.20621 25.0526 138 120 116
14.8624 -5.22624 25.0434 118 82 60
11.8497 -5.21798 25.1384 141 120 116
14.2443 -5.14248 24.9709 162 120 96
14.6282 -5.17739 25.1448 102 58 34
11.7973 -5.1076 24.9942 78 56 50
14.1367 -5.1095 25.0008 170 126 107
14.4658 -5.12626 25.0299 179 136 118
11.7973 -5.02956 24.9003 91 72 66
12.1927 -5.10739 25.2934 183 164 160
15.7043 -5.13896 26.1221 100 29 24
15.9578 -5.1125 26.2203 159 126 94
9.40519 -5.31342 27.4154 112 84 72
11.5803 -4.91992 25.5591 102 78 67
12.3423 -4.85906 25.179 196 178 176
12.604 -4.78518 25.358 244 230 226
14.7298 -4.79809 25.5132 116 100 86
10.0914 -4.8653 26.2388 128 32 30
16.2357 -4.8871 26.6494 80 58 16
12.4297 -4.62148 25.2683 98 82 76
12.5627 -4.63171 25.3784 193 176 172
-3.45036 -6.00892 33.1457 142 94 72
14.0237 -4.51615 25.4206 98 98 84
15.4749 -4.62126 26.0296 105 44 34
12.9199 -4.50348 25.5634 207 190 184
13.4613 -4.48548 25.4641 126 46 44
15.7972 -4.59997 26.1034 56 42 14
-8.10411 -5.54867 31.6555 24 9 2
11.4338 -4.53124 25.8611 250 238 232
14.4986 -4.49445 25.5865 156 142 126
-8.10808 -5.42308 31.4343 120 88 64
14.0617 -4.3577 25.3904 133 132 119
14.7331 -4.40792 25.7433 112 104 92
-8.09235 -5.27207 31.1381 70 36 16
15.7231 -4.40737 26.5013 140 115 96
15.1078 -4.32487 26.1073 115 85 63
14.8834 -4.16222 25.928 181 157 144
13.9499 -4.08158 25.7166 115 98 86
-7.71709 -4.38523 30.5047 88 30 14
-0.827206 -4.34759 32.7687 142 92 74
13.1385 -3.29501 29.2706 94 75 59
12.5015 -2.99979 28.3667 142 66 50
12.3652 -2.95664 27.7695 162 117 99
11.8622 -2.841 27.9813 202 132 108
11.5813 -3.05799 32.2116 123 94 66
11.9205 -2.42759 28.0763 141 44 20
11.9596 -2.57461 30.3293 90 76 59
13.2799 -2.28959 27.8748 40 18 8
10.2793 -2.53137 30.8758 164 118 98
15.3023 -2.42664 30.1775 164 129 103
14.2338 -2.19947 28.5596 128 80 68
14.1866 -2.15251 28.5818 72 30 18
14.0814 -2.12921 28.628 134 83 67
9.44158 -2.40007 31.9994 98 73 48
10.7683 -2.30705 31.4983 36 14 3
10.5218 -2.22686 31.0017 144 104 82
12.4124 -1.97085 27.7613 154 77 52
13.0129 -1.91007 28.1873 168 119 96
12.8541 -1.76621 28.3901 31 6 2
-3.6017 -2.16208 32.7446 132 88 57
11.8305 -1.71749 28.8054 68 49 42
14.2042 -1.62973 28.2528 143 76 46
10.7297 -1.77942 31.2866 80 51 34
12.5705 -1.58273 28.2918 92 80 80
12.0482 -1.57323 29.2781 94 74 67
13.0007 -1.47027 28.5092 87 55 42
10.8396 -1.62082 31.5379 30 8 0
11.4417 -1.63348 32.1722 144 153 140
9.63598 -1.51582 31.8437 93 67 44
11.3129 -1.50379 32.1451 22 22 13
11.1901 -1.4827 32.1473 32 22 10
11.866 -1.42064 33.6304 152 148 126
14.4459 -1.1829 28.5677 111 69 50
12.1606 -1.13366 28.3481 152 147 150
9.53088 -1.21619 31.3888 116 85 57
13.9276 -0.999592 28.3923 149 106 86
-10.4741 -1.32764 31.7006 171 116 90
11.9193 -0.931772 29.1467 154 125 112
12.1056 -0.852546 29.3658 90 67 57
12.3094 -0.985039 33.3552 85 70 46
-1.90018 -1.09164 32.9834 107 64 49
-3.72608 -1.01574 30.0545 102 54 38
10.5857 -0.693058 30.8485 160 146 120
-6.40499 -0.722187 29.5584 172 111 86
-3.47962 -0.670807 30.516 86 34 18
-5.86646 -0.642283 29.1835 160 104 84
-9.10653 -0.666327 31.1165 57 20 12
11.4506 -0.354317 33.96 122 105 74
11.7419 -0.289219 28.7155 61 16 6
-5.19572 -0.141604 29.5722 64 19 5
-5.2517 -0.0553945 28.5981 66 20 12
-5.32726 -0.091109 29.6342 125 81 69
13.1435 0.237386 28.8411 86 38 21
9.29545 0.209868 32.4492 40 20 7
9.49155 0.198678 32.1546 115 94 82
-8.56822 -0.0306736 30.3149 166 127 104
-5.60463 0.0253708 29.5162 90 42 28
11.653 0.46169 29.084 221 189 166
-9.40396 0.339302 27.8527 122 70 55
11.3165 0.880229 30.5695 41 20 9
12.4116 0.917881 29.5191 176 152 137
13.9814 1.06513 30.1792 34 22 14
11.5374 1.04122 29.7601 59 34 18
12.5143 1.12339 29.3842 173 152 141
14.5996 1.11469 29.4788 148 120 109
14.5881 1.224 29.6516 34 13 7
12.1767 1.32307 29.2429 52 27 14
14.6681 1.40831 29.9627 50 29 14
13.176 1.87758 29.7567 196 174 160
16.4479 2.13427 31.378 37 12 1
11.8706 2.64911 29.6052 140 99 82
10.6608 3.11944 30.0295 175 138 125
15.9131 3.43789 30.252 144 102 88
11.1557 3.91115 31.5175 232 214 206
15.6705 3.94302 29.9883 110 84 70
-6.61136 3.85512 31.5276 194 140 104
4.04373 3.65685 27.735 154 126 114
15.0204 4.15876 29.3951 96 76 64
15.938 4.45928 30.7119 58 40 26
15.8009 4.57032 30.7754 192 167 152
-0.539206 4.20114 29.5442 162 132 120
4.25836 4.1649 27.9172 151 134 122
1.01548 4.25675 27.157 196 149 144
2.61116 4.35737 26.9357 206 181 174
2.78771 4.72977 26.8849 118 99 92
2.94362 4.81079 26.9645 68 53 48
0.515852 6.17931 28.8626 148 94 84
2.44793 6.40323 29.08 76 17 16
13.3694 -9.68203 27.2309 146 110 80
12.9857 -9.55144 27.0743 192 142 116
12.6916 -9.00851 27.4742 187 136 111
13.4306 -8.66804 27.5289 46 30 17
13.9824 -7.84841 27.2195 62 60 50
15.5328 -8.29475 29.0863 108 92 56
9.44794 -8.51306 30.2965 100 69 36
9.15655 -8.56898 30.6374 151 134 91
17.1417 -7.67138 28.4339 110 79 48
8.98917 -7.7733 29.5856 106 70 32
12.2355 -6.41974 25.5924 25 14 6
9.65007 -6.54916 27.4432 91 18 7
14.1256 -5.80957 25.2804 74 49 36
16.1591 -6.03008 26.1181 134 108 80
13.6301 -5.56487 24.1326 40 22 11
11.6219 -5.71579 25.3237 173 146 134
11.6377 -5.62592 24.8267 221 202 196
12.4432 -5.57024 24.6563 176 146 132
11.3145 -5.60911 25.0215 149 116 101
11.9993 -5.70656 25.5842 216 200 195
11.6755 -5.54567 24.9597 126 106 98
15.3951 -5.63881 25.4492 106 80 56
15.182 -5.55139 25.5318 144 114 96
14.7695 -5.46091 25.131 154 107 80
11.9998 -5.18421 24.1113 197 178 174
11.6588 -5.36634 25.1167 176 153 144
14.0849 -5.31673 25.1008 142 106 92
11.7205 -5.2509 25.0413 86 64 56
8.98537 -5.88961 28.3439 140 122 106
14.9468 -5.26738 25.2648 120 78 50
12.3457 -5.26231 25.8529 132 114 108
14.5099 -5.15056 25.1464 162 117 98
14.7133 -5.20028 25.3088 108 62 38
14.2345 -5.15881 25.4968 130 94 80
14.0063 -4.99178 25.0387 129 92 80
15.933 -5.08675 26.1953 158 123 90
9.22131 -5.4679 28.3101 86 70 60
12.3787 -4.87874 25.2441 180 162 159
14.7504 -4.80294 25.5735 115 101 88
12.1706 -4.85222 25.8842 140 124 116
12.2951 -4.7199 25.3742 203 188 182
12.5183 -4.78998 25.7009 202 186 182
-3.83952 -6.41417 34.6559 105 90 54
12.4216 -4.64005 25.23 122 105 100
-3.45371 -5.83574 32.5753 50 22 3
12.6193 -4.5435 25.2903 112 94 91
12.721 -4.49491 25.2958 197 178 172
11.5596 -4.4899 25.5383 174 154 145
11.6409 -4.465 25.6131 125 104 96
13.4873 -4.42974 25.3775 130 34 35
-8.77149 -5.2714 30.3735 92 57 44
15.8515 -4.62706 26.6982 133 89 77
14.0744 -4.37433 25.4851 146 134 124
-7.97307 -5.21048 30.6826 48 20 4
12.8766 -4.38741 26.0141 88 72 68
11.6652 -4.3083 25.6704 162 141 132
14.3186 -4.19316 25.8732 156 140 132
13.9893 -4.11646 25.8193 120 104 92
-10.1415 -4.72575 29.9866 100 66 50
15.2827 -4.01371 30.9029 49 30 20
15.897 -3.64195 30.6877 106 56 32
11.9031 -3.01364 27.9506 132 63 50
12.5474 -2.99965 28.2776 154 106 88
13.7969 -3.14339 29.7259 156 134 122
11.8767 -2.8395 28.0017 202 132 108
12.8567 -2.86346 28.1676 154 122 109
12.9714 -2.60966 27.9187 188 135 108
11.8434 -2.78182 30.2681 152 143 104
13.3492 -2.31012 28.0102 48 24 12
14.5679 -2.34345 28.8889 97 65 56
-3.00478 -2.59488 31.8903 134 85 58
14.5812 -2.12633 28.1047 140 100 68
12.4234 -1.9816 27.8535 164 82 54
14.1995 -1.82307 28.1604 184 132 106
14.1601 -1.64236 28.1576 148 78 46
14.8326 -1.65391 28.3236 72 55 40
14.691 -1.60031 28.1981 90 76 66
12.595 -1.60776 28.3504 72 59 60
12.2813 -1.48617 28.293 26 18 23
10.6017 -1.61082 31.5074 58 25 10
11.9585 -1.44373 28.7163 144 124 118
11.3254 -1.5245 32.3267 15 12 6
-3.09279 -1.53765 30.5101 137 88 60
12.946 -1.24103 28.3462 58 47 43
9.79927 -1.38826 31.5455 74 32 16
14.5073 -1.19481 28.735 122 84 65
11.8359 -0.934178 28.9772 161 132 117
11.939 -0.869078 28.7426 59 42 36
12.883 -0.886965 28.4777 23 12 14
11.8951 -0.944109 29.2094 164 130 114
11.1603 -0.860803 33.4129 86 60 34
9.63322 -0.766841 32.3147 178 150 127
13.6733 -0.601845 28.6298 76 28 10
-3.48165 -0.680737 30.499 101 51 35
11.9957 -0.394318 29.0256 198 170 152
-4.11162 -0.412273 29.9885 104 48 32
11.6483 -0.0895545 29.0872 169 125 100
9.49055 -0.00154526 32.271 33 12 8
10.3402 0.104897 31.8954 36 14 2
9.58657 0.0976837 32.318 128 104 90
10.0247 0.127195 32.1729 44 19 5
-5.35647 -0.08501 29.6682 98 53 43
9.42819 0.163617 32.6668 156 130 114
12.1321 0.601526 29.1333 140 113 98
11.7437 1.00069 30.3225 43 20 6
14.0988 1.05237 30.2342 18 10 8
14.9054 1.1283 30.3785 176 147 124
12.2189 1.09027 29.7567 174 144 124
14.6075 1.09973 29.5021 179 149 132
17.5972 1.35937 32.5381 146 117 91
14.5189 1.21144 29.4771 38 16 11
11.2942 1.26218 30.1636 20 10 6
14.6378 1.31972 29.7223 160 136 120
11.2281 1.34833 30.4774 27 20 14
12.336 1.35369 29.7542 74 48 30
14.5925 1.4183 29.8 50 29 14
14.7854 1.40882 29.5565 178 158 146
12.2412 1.62671 30.1275 98 69 51
16.5055 2.07811 31.4904 38 16 8
12.2841 2.11601 29.849 221 184 164
7.69158 2.29844 25.9453 122 51 40
9.19853 2.93188 31.5757 156 58 45
10.8961 2.96435 29.8494 115 66 46
14.417 3.3074 29.2324 152 107 93
9.36493 4.03085 32.3595 62 39 30
4.03538 3.63345 27.6624 159 130 118
4.16177 3.73539 27.7828 116 100 87
10.3328 4.35608 30.6585 135 106 98
-0.592352 4.30659 30.3093 152 122 108
14.3016 4.68334 29.7036 216 192 174
14.2834 4.72435 29.6637 200 176 160
14.2082 4.814 29.6711 34 20 10
0.143044 4.1422 27.3344 94 69 60
14.6197 5.14048 30.3159 138 106 87
0.78206 4.3573 26.5005 149 62 58
3.27918 4.75698 26.9097 194 176 170
1.04271 6.8298 28.4313 186 157 150
1.11399 7.01172 28.8745 110 80 75
12.7108 -9.59905 27.143 240 195 174
12.7116 -9.00376 27.4709 206 156 132
13.6937 -8.11501 27.188 157 142 130
17.0753 -7.65904 28.315 108 77 46
8.94012 -7.4488 28.8373 148 126 99
8.69994 -6.75691 27.5632 132 106 77
8.72366 -6.96754 28.831 150 123 101
9.6241 -6.52404 27.3019 96 30 14
11.2098 -5.86491 25.2588 130 82 55
11.5343 -5.68146 25.0704 212 192 180
12.3825 -5.55388 24.5886 176 146 130
15.4561 -6.08601 26.7298 37 16 2
11.1579 -5.50684 24.7077 158 128 116
12.2789 -5.56775 25.0146 224 207 202
13.9613 -5.25437 24.9362 152 122 112
12.1148 -5.22902 25.217 136 119 115
15.1046 -5.33598 25.521 128 88 60
13.8491 -4.99936 24.2397 156 114 92
14.4358 -5.12306 24.9791 155 110 90
11.732 -4.91501 25.4718 116 92 82
14.2618 -4.84628 25.3181 152 133 122
11.493 -4.78797 25.2611 148 124 114
12.4275 -4.90763 25.7956 102 86 80
11.4714 -4.82816 25.5917 102 76 66
12.5891 -4.78481 25.3365 238 222 219
12.2597 -4.72499 25.2532 148 134 129
15.9989 -4.76794 26.5359 62 30 16
15.4641 -4.62896 26.0186 114 50 42
14.1634 -4.54757 25.702 114 110 97
9.56442 -4.81779 27.5169 170 134 115
12.6358 -4.48029 25.5386 192 178 174
9.43641 -4.85686 27.8306 154 124 108
12.4374 -4.32227 25.1995 130 114 110
14.0126 -4.35672 25.3527 144 136 126
14.4561 -4.23186 26.183 154 140 132
14.8418 -4.15209 25.8244 170 146 134
13.9981 -4.10787 25.7975 118 102 88
10.9221 -4.62926 31.5298 130 104 61
15.7172 -4.11552 30.3614 26 14 3
16.1003 -3.98821 30.9572 136 122 86
10.4471 -3.39267 31.6053 150 138 94
13.7261 -3.13756 29.5321 156 133 122
13.1009 -2.62889 28.2498 172 120 92
13.6999 -2.68076 29.1056 163 113 92
13.4529 -2.30225 28.2916 54 28 14
12.6119 -2.21108 27.9794 98 37 19
14.7792 -2.21974 28.0351 123 98 58
-5.51914 -3.00551 36.2757 158 144 115
12.2557 -2.20837 28.0502 121 26 2
13.1573 -2.22845 28.5091 148 90 70
13.3988 -2.18996 28.498 130 81 62
14.3124 -2.0783 27.7917 180 146 121
10.3098 -2.25987 30.8799 136 87 66
14.2479 -1.82357 28.2153 182 134 109
14.4861 -1.66858 27.9692 132 107 89
14.7206 -1.6473 28.1186 52 37 25
9.64797 -1.81146 31.5251 110 83 59
12.6133 -1.60476 28.4115 47 34 35
10.8791 -1.65627 31.54 20 8 4
10.6217 -1.59763 31.5155 54 20 6
10.6791 -1.52552 31.3271 97 62 43
11.233 -1.53501 32.0412 12 10 4
10.2363 -1.40667 30.982 46 14 4
12.8447 -1.22237 28.0406 72 60 55
14.5932 -1.18627 28.842 133 90 72
14.9145 -1.18438 28.6663 172 138 120
14.983 -1.13719 28.6228 73 34 20
13.9978 -1.00691 28.5614 162 118 97
-3.8603 -1.06231 30.2121 94 47 32
-3.92851 -0.933501 29.713 166 114 98
11.9653 -0.407282 28.9066 192 166 150
14.9441 -0.374889 30.0315 74 45 25
9.99074 -0.155557 31.0711 137 102 82
11.6531 -0.0988537 29.061 166 120 98
10.3939 0.130018 32.58 82 58 38
-5.4449 -0.025017 29.062 110 61 48
-9.31236 0.000156194 32.6148 164 125 102
9.34407 0.417359 32.7785 29 15 3
-4.91341 0.373149 34.8342 150 132 108
11.3309 0.825081 29.7919 101 54 34
11.6705 0.973788 30.1306 51 26 13
12.0026 1.05253 29.6555 118 88 72
9.09425 1.5391 33.3153 162 128 110
11.4601 1.74851 31.2185 94 75 58
14.1341 1.87899 29.6017 178 157 146
-9.73801 1.44168 27.4214 126 28 10
16.1591 2.24266 31.1628 66 40 15
-10.319 1.64168 27.0494 152 124 85
12.0423 2.52601 29.5384 152 112 90
8.91173 2.75858 32.5579 106 83 66
10.6794 2.73111 29.8524 180 132 111
11.9485 3.13314 29.3693 190 150 130
12.2672 3.21145 29.0477 112 66 41
15.8914 3.44761 30.2008 146 99 84
10.5243 3.44388 29.1099 136 96 82
15.38 3.90444 29.7357 55 33 22
-6.62467 3.87121 31.5579 174 118 86
15.0597 4.1925 29.8892 166 137 122
4.1587 3.77582 27.9102 125 108 96
-0.905094 4.05615 29.2255 153 120 107
5.06223 4.28752 28.9716 148 129 114
0.102201 3.98634 27.7251 98 72 64
1.0321 4.198 27.028 156 80 76
2.61163 4.38502 27.1475 80 48 42
3.24928 4.66536 26.425 140 125 118
0.498224 6.12951 28.7076 153 94 84
0.611806 6.1946 28.8012 74 16 10
12.6439 -9.55976 26.9563 209 158 136
13.2084 -8.85578 27.7092 160 112 86
12.9399 -8.54237 27.2086 54 28 14
10.8176 -9.05039 31.2191 103 88 56
17.3524 -8.59004 29.4132 102 78 44
8.97683 -7.7539 29.5693 106 70 32
8.96478 -7.48948 28.9235 153 132 105
8.89533 -7.00989 29.7373 97 71 42
13.0456 -5.92683 25.0482 13 8 5
14.3922 -5.71568 24.0182 144 118 95
11.5491 -5.26619 24.7625 140 120 112
14.778 -5.22266 25.0704 123 82 54
14.5088 -5.14896 25.1352 164 121 101
-2.59563 -6.44246 32.0246 54 18 6
11.622 -4.85728 25.1303 93 70 61
11.6475 -4.96708 25.8553 110 84 75
12.3865 -4.82105 25.1872 196 178 176
14.2656 -4.84683 25.3733 152 134 123
12.3432 -4.87341 25.5861 77 62 56
12.0785 -4.78031 25.4999 100 84 78
14.5607 -4.75793 25.2605 128 114 104
12.4002 -4.78135 25.5921 148 134 128
9.68034 -4.78651 26.6871 154 106 100
12.9794 -4.65204 26.0809 122 104 100
14.1981 -4.56671 25.7383 100 99 85
12.4887 -4.41103 25.1945 178 162 160
13.503 -4.4356 25.5198 132 38 38
14.1096 -4.38721 25.6533 155 139 130
14.7303 -4.12094 24.9576 150 131 116
14.4676 -4.20711 26.2366 157 142 134
14.6142 -4.18914 25.9069 153 135 122
-8.30193 -4.67569 30.9187 124 70 52
-0.131794 -4.89601 32.9599 152 140 100
15.0978 -3.93163 28.924 96 84 54
-2.87584 -4.48551 33.1118 72 30 9
11.5667 -4.20686 31.662 91 56 19
-9.2283 -4.13062 30.6212 61 18 7
15.5014 -3.62709 30.7356 20 10 2
13.1915 -3.33105 29.292 89 76 58
13.911 -3.18577 30.0382 154 135 124
12.358 -2.77559 27.0174 143 116 104
13.3624 -2.66239 27.8818 108 74 52
12.9841 -2.6146 27.9426 172 120 92
13.3757 -2.6316 28.3482 168 118 98
11.3142 -2.77064 31.393 66 32 14
12.2387 -2.68069 30.0208 94 66 54
-11.074 -2.8257 31.87 136 114 90
13.4556 -2.30436 28.3529 66 34 18
-2.98283 -2.60155 31.9076 134 85 58
11.9301 -2.09786 28.4865 168 123 110
14.2534 -1.81806 28.234 184 132 106
-3.29742 -2.07258 31.3154 112 70 40
-3.95406 -2.12937 32.6243 114 72 50
10.6136 -1.77485 31.4787 92 55 38
11.0104 -1.54139 31.4668 10 8 5
-0.559795 -1.71016 33.012 26 8 1
-3.13848 -1.50836 30.94 140 90 62
13.5549 -0.998423 28.7181 133 74 50
-7.68817 -1.24046 30.288 105 60 36
11.6927 -0.949615 28.748 162 132 116
12.117 -0.85942 28.491 65 58 58
13.1459 -0.872376 28.5151 130 82 64
-3.74283 -1.06476 29.7932 78 32 19
12.2952 -0.805796 28.5107 28 19 22
11.8994 -0.617793 32.7778 42 25 6
-3.50956 -0.708494 30.7291 84 34 18
-9.10069 -0.677458 31.0123 37 8 6
-5.21653 -0.175618 29.5766 58 16 6
-5.60208 -0.0379543 29.8518 110 61 48
9.51195 0.360661 34.6016 153 138 114
11.6494 0.468685 29.0888 206 172 147
11.8994 0.821156 30.0435 122 90 70
11.6233 0.862121 30.9025 158 105 82
11.9191 1.05695 29.5662 118 89 73
12.3725 1.11731 29.0284 173 152 141
16.4909 1.43571 31.1973 68 32 12
2.57367 2.27935 30.9324 156 130 110
4.02687 2.35271 29.6581 125 68 50
-11.6746 2.55624 35.7921 100 72 38
11.9652 2.50442 29.1877 105 60 38
11.8838 3.11278 29.1538 176 136 116
12.7474 3.19733 29.5685 170 124 103
12.357 3.22613 29.3036 114 68 44
15.6545 3.76435 30.0262 175 152 138
15.5047 3.93467 30.0693 49 28 20
11.2065 3.99553 31.2772 237 223 216
15.0907 4.0916 29.6913 29 12 7
4.15109 3.75769 27.8049 124 108 94
-0.935167 4.09534 29.4183 159 126 112
-0.516332 4.1686 29.4349 161 132 120
0.749991 4.50079 27.1828 144 54 50
1.58915 4.64339 27.2215 84 70 68
12.7745 -9.70496 27.3982 190 140 113
13.4563 -9.13934 27.6845 108 80 44
12.3553 -8.37113 26.6235 120 22 14
9.67256 -9.16076 30.6098 104 86 44
13.569 -8.09905 27.0621 48 38 26
15.6968 -8.37039 29.3107 121 104 68
8.85974 -7.04584 29.7732 102 77 38
12.9912 -5.88663 24.9584 26 13 6
12.8567 -5.73814 25.6156 221 194 182
12.0131 -5.57648 25.0474 142 119 112
12.8824 -5.77808 26.6933 73 56 50
15.1478 -5.52768 25.4593 141 110 91
9.41576 -5.77307 27.0202 124 88 68
12.2522 -5.27008 24.8776 187 170 168
13.8482 -5.23497 24.8862 159 136 128
14.6701 -5.20186 25.1586 102 56 28
12.0517 -5.21715 25.5519 80 59 54
14.1159 -5.05935 25.3217 137 104 92
9.15908 -5.46894 28.1287 82 68 58
12.0961 -4.78238 25.1341 136 120 114
12.6874 -4.93476 25.9133 192 174 172
14.3641 -4.89658 25.731 155 134 128
11.5527 -4.67459 25.5467 116 92 82
12.828 -4.86347 26.439 176 158 156
14.1955 -4.57979 25.7902 111 107 94
12.697 -4.52924 25.9198 164 148 146
14.6636 -4.4454 25.6823 106 108 94
10.074 -4.95929 29.1606 158 124 112
11.7737 -4.52964 26.877 95 70 62
15.0629 -4.2899 26.0804 140 108 87
14.4184 -4.07838 25.1588 154 132 121
10.9267 -4.60326 30.8797 90 34 8
10.8492 -4.41572 32.0653 150 142 96
-9.931 -3.96649 30.2348 115 76 57
10.3419 -3.8223 31.1852 146 139 92
