ply
format ascii 1.0
element vertex 1335
property float x
property float y
property float z
property uchar red
property uchar green
property uchar blue
end_header
-2.37036 -0.466257 7.41138 133 107 90
2.59379 -0.466535 7.81026 38 20 6
2.59081 -0.460274 7.85555 35 18 5
3.60594 -0.423303 7.37638 46 20 8
3.56284 -0.362151 7.37021 114 93 74
3.58382 -0.318312 7.39289 34 17 4
2.35481 -0.332169 8.06941 128 88 64
2.8917 -0.30658 7.35594 118 84 70
2.93078 -0.307591 7.36361 132 100 86
2.51306 -0.320878 7.97868 160 116 92
3.12989 -0.24422 7.21495 72 44 24
3.14697 -0.222911 7.18097 178 154 140
2.87643 -0.214459 7.33364 38 22 15
3.14605 -0.201135 7.21389 122 106 93
3.30915 -0.200469 7.30355 97 52 26
2.25692 -0.20104 8.0725 134 100 76
3.59583 -0.149505 7.38938 96 50 28
3.61015 -0.127063 7.38781 112 67 50
3.38461 -0.0929058 7.32246 123 104 88
-2.18701 0.0123186 6.16538 124 30 13
2.39562 0.016012 7.64021 148 86 64
2.63916 0.104744 7.36613 194 148 128
2.33579 0.196973 7.64885 178 76 63
2.80275 0.214494 7.28143 118 74 54
2.4034 0.263746 7.64165 168 126 122
3.57777 0.270313 7.16375 138 103 86
2.44963 0.294786 7.58563 150 120 116
2.68746 0.299584 7.28794 123 84 66
2.7195 0.320924 7.32687 184 143 128
3.61395 0.335971 7.18181 110 80 60
3.76129 0.34873 7.25695 155 126 118
3.86821 0.352789 7.33604 60 37 28
3.5442 0.353679 7.20581 138 108 93
3.58328 0.365513 7.17069 192 162 142
3.9347 0.371696 7.38765 184 162 149
3.92867 0.38388 7.36812 168 140 122
2.52303 0.402476 7.54328 117 90 87
3.93103 0.395506 7.42355 82 58 50
3.59781 0.404825 7.22005 146 114 100
-0.596296 0.451422 7.77507 194 141 116
3.74839 0.422659 7.26788 178 127 110
2.9201 0.526632 7.28484 164 103 89
3.39329 0.523047 7.23661 139 62 56
2.65569 0.550395 7.51145 119 88 82
2.94932 0.533147 7.27552 118 30 28
-0.601068 0.579926 7.71754 216 162 127
2.82162 0.55054 7.36685 112 56 52
3.37375 0.541469 7.24589 124 49 40
2.65995 0.566013 7.49867 124 92 85
2.96853 0.545513 7.22236 139 98 88
0.845392 0.527671 6.23934 59 46 32
3.57253 0.621368 7.33283 48 32 27
1.26988 0.567585 6.5885 112 96 82
3.62163 0.64381 7.3334 42 28 16
3.11094 0.654351 7.28331 206 146 118
1.45864 0.619587 6.80317 190 174 166
1.21187 0.59174 6.46344 112 97 90
2.75144 0.72941 7.68288 220 202 194
2.98366 0.692569 7.3581 162 128 126
0.0619853 0.656076 6.79408 87 64 53
3.02457 0.702211 7.32648 166 136 129
3.13333 0.697021 7.28107 127 90 86
0.994708 0.62335 6.37655 166 107 102
3.52334 0.714922 7.36013 137 109 98
-2.36009 0.741646 7.54606 199 148 116
3.12192 0.71614 7.30037 153 121 118
3.05386 0.726875 7.34438 72 51 45
0.0493574 0.672956 6.76677 157 130 118
1.19345 0.637684 6.47045 154 128 116
0.476321 0.666565 6.35989 200 174 164
0.882337 0.687051 6.4071 196 174 170
0.494584 0.698222 6.33352 122 108 100
0.523971 0.721371 6.3897 200 184 178
-2.55933 0.707842 6.1265 131 71 38
0.476285 0.7305 6.34737 94 80 74
1.02516 0.775173 6.38549 216 202 198
0.91356 0.781561 6.34642 50 30 24
0.979684 0.774978 6.33595 74 54 46
0.58561 0.781736 6.32529 78 56 50
0.930353 0.79307 6.3322 55 36 30
-2.60268 1.02869 6.48411 130 58 33
0.453078 1.10048 6.80355 222 197 190
0.534576 1.10716 6.80382 169 155 156
0.565499 1.1565 6.80488 128 100 102
0.43759 1.26713 6.86666 190 158 152
0.640836 1.25005 6.75711 80 51 46
-2.32949 1.34236 6.4036 117 52 42
2.29012 -2.38026 7.04513 144 121 92
3.18822 -2.07122 6.24925 31 18 7
3.02378 -1.85523 5.95747 204 177 166
3.03244 -1.8077 6.00529 92 66 59
-0.558786 -2.09825 7.37996 108 74 58
-0.616699 -2.0573 7.37441 81 49 34
-0.423775 -2.03639 7.36059 93 55 40
2.36936 -1.84823 6.68579 155 134 122
-0.689681 -2.04898 7.43941 132 86 70
-0.554794 -2.00813 7.35527 94 52 38
2.37235 -1.82205 6.71281 88 70 62
-0.46311 -1.97522 7.36857 110 65 48
2.49747 -1.72611 6.50299 123 48 40
-0.759054 -1.96973 7.48109 164 112 90
-0.366511 -1.94226 7.35417 118 76 56
-0.452384 -1.90032 7.34419 146 90 67
2.53803 -1.66693 6.45336 131 74 65
2.46927 -1.69951 6.60314 112 76 54
-0.422166 -1.86436 7.36659 115 68 48
2.47521 -1.66996 6.59282 164 124 97
-0.810873 -1.89738 7.5094 143 96 74
-0.613912 -1.8542 7.32891 86 32 12
2.59111 -1.62965 6.4568 46 21 8
-2.22299 -1.68798 6.73803 148 101 76
-2.34482 -1.67315 6.76218 130 88 63
-0.721584 -1.82602 7.38823 126 62 38
-2.27516 -1.61912 6.71061 160 114 89
-2.26301 -1.60968 6.73887 132 86 66
-1.95253 -1.64586 6.91497 166 110 86
-0.285378 -1.73117 7.42911 108 69 58
-1.94306 -1.612 6.93576 62 22 6
-0.707667 -1.70474 7.33656 100 27 8
-2.1339 -1.57518 6.80461 100 52 34
-1.90707 -1.51439 6.87884 107 52 37
-1.98101 -1.48595 6.85598 95 36 20
-1.84655 -1.49293 6.95308 96 31 16
2.6731 -1.60493 7.71382 162 150 104
-2.13854 -1.41186 6.82977 154 95 78
2.65157 -1.5927 7.74337 125 98 54
-0.392191 -1.52826 7.55753 120 74 51
-2.13283 -1.37865 6.86682 125 68 52
-2.30555 -1.33365 6.71487 97 60 42
-0.00994565 -1.51652 7.63906 30 7 1
-0.324649 -1.49301 7.59008 114 64 46
0.0234182 -1.50082 7.6577 134 119 82
-0.59711 -1.48807 7.66796 206 152 122
-0.631146 -1.47681 7.62735 178 122 91
3.04014 -1.40031 7.25902 91 78 62
3.91842 -1.45818 7.53691 62 33 18
3.3622 -1.36457 7.14833 112 100 85
3.0075 -1.40442 7.39089 86 83 50
3.31515 -1.33674 7.10302 102 84 72
2.83446 -1.42966 7.69391 72 28 5
3.04443 -1.33368 7.27767 134 119 104
3.11114 -1.2201 6.82017 150 38 38
-0.0852404 -1.33688 7.49426 150 100 82
2.40602 -1.24246 7.36645 96 57 29
2.98339 -1.25037 7.40292 74 72 33
0.094511 -1.2788 7.62141 124 102 78
-2.12442 -1.17574 7.11641 108 56 38
0.0844505 -1.25527 7.63418 56 28 6
-0.119518 -1.16932 7.48999 149 102 79
-0.0393455 -1.15298 7.46423 180 130 108
2.5758 -1.14229 7.39412 156 106 86
3.13295 -1.04811 6.80205 149 53 27
2.53719 -1.13753 7.43433 126 89 71
3.07244 -1.00849 6.93976 64 19 14
2.66257 -1.08503 7.54818 156 113 92
3.25189 -0.989108 6.96441 94 24 10
-0.701293 -1.00841 7.34792 127 82 50
0.0624505 -1.0476 7.64649 139 118 96
3.0996 -0.931463 6.92975 79 72 74
-0.125724 -1.00399 7.51915 164 111 87
-0.614757 -0.957706 7.22226 126 80 54
3.53053 -0.912106 6.92682 190 122 89
3.31111 -0.879869 6.94942 72 42 32
3.06918 -0.876409 7.03753 130 108 94
3.49471 -0.868543 6.95132 174 100 73
-2.50905 -0.877888 7.10255 168 113 84
-2.58425 -0.863126 7.12356 180 132 100
3.17035 -0.832248 7.04264 38 34 36
0.00129236 -0.884628 7.65168 98 60 34
3.03097 -0.811208 7.06707 102 76 62
-0.105339 -0.881817 7.76071 27 4 0
-0.0651213 -0.881447 7.74108 170 143 123
2.58567 -0.865316 7.49226 44 10 2
-2.58358 -0.772305 7.19738 174 142 114
-2.57023 -0.764287 7.23592 52 18 6
2.4321 -0.786029 7.61193 112 70 44
3.38274 -0.717487 6.90856 72 27 18
-2.48601 -0.727898 7.22179 172 114 94
3.43746 -0.702609 6.9949 128 79 60
-0.790462 -0.692746 6.95795 146 100 84
-0.823219 -0.661251 6.87654 152 102 86
3.47433 -0.674068 6.9921 79 26 12
-0.849309 -0.637977 6.85474 166 114 98
3.22871 -0.633281 6.96711 50 28 29
3.27429 -0.625611 6.93379 111 84 85
3.48123 -0.639802 7.01042 124 76 56
-2.38674 -0.612797 7.25502 119 73 56
-0.893295 -0.5806 6.85931 88 37 23
-0.814744 -0.58485 6.85309 86 33 17
3.18754 -0.59214 6.97689 134 88 69
3.53488 -0.595631 7.02579 165 127 105
3.07796 -0.579517 6.96505 126 79 58
3.12672 -0.582883 6.97345 72 34 20
3.0119 -0.583002 7.03133 82 36 21
3.21564 -0.572109 6.97609 31 10 5
3.22688 -0.57338 6.9513 32 10 10
3.10284 -0.563418 6.96161 78 34 24
3.19225 -0.566878 6.99015 94 53 34
-1.23955 -0.534632 6.63166 156 106 92
-0.916105 -0.552916 6.84347 158 100 82
3.06539 -0.559099 7.02031 82 35 18
3.23168 -0.552582 6.96701 140 110 100
2.98076 -0.54215 7.09525 174 130 108
-1.37376 -0.501033 6.6857 109 50 30
-2.50304 -0.528833 7.31035 122 96 75
-1.18036 -0.487512 6.70042 111 62 48
-1.16834 -0.470655 6.70182 139 90 76
2.46288 -0.527506 7.63911 145 115 85
-1.27069 -0.448501 6.69759 104 52 38
2.53241 -0.50933 7.73348 88 65 50
3.03447 -0.463921 7.04765 200 170 150
-1.1583 -0.434041 6.73042 58 14 4
3.37486 -0.462171 7.17261 96 52 33
-1.21539 -0.413853 6.82193 99 50 37
3.61417 -0.340599 7.372 48 24 11
2.26759 -0.349659 8.13586 144 101 76
2.88494 -0.313202 7.23798 119 76 56
2.97766 -0.304091 7.33778 158 126 104
3.49483 -0.291493 7.37643 52 31 18
3.53135 -0.283698 7.38856 16 9 8
3.12977 -0.247106 7.17786 62 39 22
3.70186 -0.248196 7.40204 150 124 100
3.1509 -0.207868 7.23513 145 124 108
3.29851 -0.18804 7.28837 88 44 18
2.26371 -0.211808 8.07022 146 111 86
-2.21422 0.00595593 6.24426 128 22 11
2.39406 0.0182585 7.64017 150 91 68
2.2411 0.032497 8.1084 122 89 71
2.31049 0.095361 7.70776 161 112 90
0.678695 0.175631 6.49609 116 67 48
3.22046 0.258208 7.15389 163 120 100
2.49112 0.2844 7.54896 146 118 111
3.56721 0.267094 7.14417 144 110 94
2.45251 0.293668 7.59254 160 129 123
3.25632 0.299485 7.13163 118 74 54
2.50339 0.350176 7.54119 126 98 98
3.22184 0.333462 7.18251 156 116 100
3.61438 0.334907 7.18402 160 132 112
3.86713 0.35035 7.33965 112 90 80
0.430307 0.34947 6.37871 54 6 2
3.58886 0.398795 7.20147 146 112 98
-0.596837 0.444867 7.76504 184 130 108
2.36208 0.452734 7.84979 44 24 14
2.40495 0.471157 7.82744 138 127 118
3.8098 0.449198 7.32703 40 16 8
2.38239 0.489193 7.88388 41 20 11
2.90006 0.511522 7.33774 182 146 140
2.86285 0.523133 7.37444 153 101 100
2.9546 0.510737 7.27292 144 109 102
3.1314 0.518312 7.18786 119 114 104
3.38907 0.520169 7.23502 151 86 78
-0.604618 0.577847 7.73295 204 150 118
2.82858 0.546612 7.37776 144 93 86
3.37642 0.537829 7.24811 134 60 50
0.763207 0.486986 6.21294 41 16 7
1.42535 0.551871 6.88484 108 88 72
3.13258 0.588498 7.24455 119 59 53
2.81906 0.604319 7.3862 134 92 90
3.00575 0.593556 7.27688 162 78 58
-2.29874 0.625907 7.50169 184 133 106
0.674267 0.523803 6.2369 60 44 32
0.845224 0.525499 6.23811 74 61 46
3.61542 0.638074 7.32144 56 40 28
1.23195 0.567057 6.50174 110 88 74
2.85873 0.652455 7.39714 56 24 19
2.88795 0.659807 7.37895 164 134 130
3.1109 0.651387 7.29178 199 144 108
2.9058 0.662201 7.34108 72 46 40
2.91134 0.685668 7.35242 86 64 56
-0.00640024 0.639711 6.7645 212 194 187
2.94947 0.695378 7.36175 60 38 33
2.98277 0.692407 7.37446 148 116 112
3.0436 0.688402 7.32313 54 26 21
0.0581636 0.647318 6.79801 87 64 56
3.01954 0.699122 7.31783 148 114 108
0.755091 0.605188 6.28459 48 35 19
0.991249 0.617533 6.36924 129 54 48
-2.2772 0.729156 7.43291 190 138 109
0.0506926 0.678375 6.78243 157 130 118
0.0271894 0.715471 6.78829 108 80 69
0.576726 0.679286 6.32094 74 60 55
0.980302 0.698855 6.38377 96 80 74
0.440433 0.70694 6.36334 158 138 130
1.02257 0.727418 6.34745 170 154 150
0.588758 0.75031 6.32008 68 48 40
0.977726 0.757621 6.38686 81 62 57
0.52619 0.766763 6.32441 79 58 50
0.588263 0.767646 6.32257 63 40 31
1.02457 0.771599 6.39216 196 182 179
0.978061 0.773476 6.35502 55 34 26
0.565058 0.788288 6.32843 52 30 24
0.932873 0.793652 6.34757 40 21 15
0.951714 0.789457 6.32341 36 21 12
-2.54012 0.891085 6.38392 104 39 20
-2.56811 0.982284 6.47747 148 90 79
-2.586 1.02899 6.44271 118 40 20
0.455061 1.10996 6.81765 222 197 190
0.537557 1.10476 6.82273 161 136 136
0.563767 1.14967 6.77842 96 70 71
0.438905 1.25639 6.82167 175 144 136
3.11282 -1.85876 6.08317 208 191 186
2.42288 -1.9221 6.37208 147 118 102
3.17096 -1.81854 6.07363 95 76 66
2.43093 -1.8805 6.37025 117 82 66
-0.463393 -2.13418 7.34954 91 62 40
2.46276 -1.85066 6.37722 108 64 42
2.505 -1.83119 6.32947 149 115 98
-0.42284 -2.03956 7.37202 110 71 54
-0.689775 -2.04503 7.43044 131 85 68
-0.588743 -2.00613 7.34515 58 22 8
-0.554762 -2.00922 7.35584 80 42 29
2.28376 -1.91903 7.02543 110 86 58
-0.461892 -1.97129 7.33844 122 76 59
-0.362759 -1.945 7.35801 116 73 54
-0.457568 -1.90789 7.35661 152 96 71
2.46482 -1.69593 6.59521 110 74 52
2.4463 -1.68176 6.60782 123 89 70
-0.41927 -1.85905 7.34879 92 51 36
-0.308577 -1.86582 7.38156 85 48 34
2.4693 -1.66254 6.56593 171 132 106
2.57793 -1.62747 6.42358 36 12 2
-2.2568 -1.70769 6.79488 151 102 78
2.41244 -1.64761 6.57559 140 109 90
2.98683 -1.57539 6.31809 113 88 81
-0.675092 -1.8133 7.33929 126 61 40
2.49672 -1.62896 6.58942 146 114 98
-2.27992 -1.62295 6.72022 161 114 90
-1.91166 -1.71699 7.10335 126 88 60
-2.26748 -1.6139 6.75086 134 88 69
-2.08409 -1.63489 6.83019 62 26 12
-1.90902 -1.66939 6.96802 47 18 4
-0.343911 -1.77567 7.40478 110 68 54
-2.3269 -1.57807 6.69194 158 108 82
-2.1185 -1.58362 6.78566 88 44 26
-0.283369 -1.73409 7.42947 108 69 58
-0.703746 -1.70324 7.32187 104 28 12
-2.13362 -1.57389 6.80757 114 64 46
-1.89723 -1.51115 6.85606 111 58 38
-0.0318825 -1.68616 7.70539 132 120 80
-2.3504 -1.44044 6.80873 122 82 56
2.67464 -1.60671 7.68536 164 150 104
2.64853 -1.58872 7.73027 125 98 54
-0.408021 -1.54571 7.56669 104 60 40
-2.11334 -1.37752 6.83999 125 67 52
-0.715311 -1.56273 7.74705 78 44 18
-0.402288 -1.52482 7.56003 131 82 56
2.85832 -1.53829 7.63112 96 50 17
-2.12327 -1.36289 6.81598 100 46 34
-0.010518 -1.51801 7.64377 30 7 1
0.0318142 -1.50128 7.63606 144 137 92
-0.569094 -1.47311 7.54787 213 159 128
-0.393257 -1.47805 7.55846 94 47 26
2.64387 -1.45899 7.47516 157 106 80
3.90756 -1.4769 7.58471 70 48 42
-0.751828 -1.50234 7.74167 142 98 62
-0.617362 -1.46257 7.51571 170 112 83
3.86982 -1.45131 7.56673 20 11 4
2.83303 -1.45962 7.68335 138 106 71
3.31001 -1.33612 7.05409 99 85 70
3.14837 -1.27012 6.84759 124 48 40
2.97379 -1.35524 7.3648 128 128 80
3.00152 -1.28242 7.34312 136 119 94
0.101067 -1.27878 7.61776 135 118 86
-2.13668 -1.15218 7.12458 176 118 90
3.2263 -1.055 6.8024 120 56 34
-2.12235 -1.10271 7.13302 106 50 28
-0.0422844 -1.15901 7.49533 180 129 108
2.53105 -1.13557 7.41603 130 94 76
-2.57656 -1.06444 7.1729 152 103 80
-2.52727 -1.06348 7.12568 160 106 79
3.05243 -1.02788 6.91847 161 100 88
3.14405 -0.982244 6.84279 174 74 46
3.10392 -0.986065 6.90313 146 59 33
-2.57446 -0.994911 7.17074 79 36 18
-0.696182 -1.00314 7.33037 126 80 49
0.0699467 -1.04396 7.62239 128 104 80
-0.633242 -0.97037 7.26396 118 70 44
-0.124345 -1.00693 7.5153 164 111 87
3.08815 -0.884826 6.93781 100 88 88
2.66001 -0.965389 7.60401 71 36 19
3.0578 -0.874563 7.0213 133 109 95
3.32497 -0.840873 6.9085 48 20 12
2.48128 -0.88736 7.57562 149 113 90
-0.107778 -0.886323 7.76971 29 8 2
3.03605 -0.812422 7.07355 50 27 16
3.12995 -0.796019 6.96288 89 84 86
-1.32413 -0.725021 6.69567 211 159 118
-2.59463 -0.771832 7.20693 128 96 66
3.09058 -0.740864 7.13623 74 52 44
3.11809 -0.729348 7.01096 46 36 39
3.15353 -0.719274 7.0144 22 14 18
3.40458 -0.720953 6.99308 74 32 22
-2.49811 -0.733633 7.24529 159 102 82
3.35213 -0.694132 6.98066 59 32 30
3.45788 -0.705588 7.03048 118 69 50
-0.811316 -0.691163 7.01532 112 66 49
3.488 -0.673294 7.03462 80 28 16
-0.847474 -0.638805 6.8766 172 120 105
2.99132 -0.640057 7.03783 184 135 110
3.24443 -0.638819 7.03594 44 23 22
3.34487 -0.631874 6.90314 88 62 58
3.51755 -0.607968 7.05083 122 72 50
3.18665 -0.598668 6.97732 136 92 74
-1.2975 -0.546145 6.66225 96 43 25
-1.27857 -0.550551 6.69598 128 76 59
3.00084 -0.578473 7.00492 72 25 10
3.13135 -0.582091 6.98331 88 50 39
-0.911513 -0.555701 6.84069 180 122 103
3.06206 -0.56663 6.99853 66 20 4
-1.24687 -0.529551 6.66235 158 108 94
3.23299 -0.551053 6.96392 114 87 78
2.38734 -0.56901 7.76961 159 130 110
-1.18577 -0.476856 6.7012 154 103 88
2.46081 -0.522425 7.57351 162 128 108
-1.26106 -0.452181 6.67734 124 72 58
3.03914 -0.462255 7.05799 200 170 150
3.38559 -0.465624 7.17702 90 45 26
-1.21068 -0.396493 6.7056 128 75 59
2.50984 -0.451906 7.93289 114 80 46
3.55584 -0.362946 7.34401 118 98 79
3.61204 -0.351268 7.29455 43 22 6
3.62443 -0.347882 7.38551 42 20 8
2.95496 -0.308928 7.2682 162 129 106
-2.25218 -0.212832 6.19235 110 32 4
3.14341 -0.250036 7.19974 52 30 14
3.20486 -0.168082 7.31088 29 16 9
2.23944 -0.130586 8.09739 115 78 48
2.8824 -0.106503 7.54794 100 78 64
3.14598 -0.0105722 7.43323 174 133 108
2.28385 0.137125 7.69561 173 132 118
2.26342 0.148618 7.81059 158 133 118
3.05731 0.181757 7.08883 173 124 103
2.79035 0.204206 7.23853 122 74 49
2.39721 0.225471 7.64364 118 40 37
2.7186 0.232319 7.28808 179 144 134
2.84594 0.234121 7.32198 192 160 150
2.40084 0.258958 7.63111 156 97 95
2.4511 0.286698 7.5785 172 142 134
3.28646 0.272071 7.15125 171 140 130
3.14529 0.305056 7.17299 166 132 116
3.26931 0.303589 7.15097 118 73 53
2.5029 0.342148 7.52577 165 138 134
2.76282 0.36263 7.4926 126 90 74
3.22158 0.332225 7.16303 164 126 110
3.30867 0.342091 7.20253 142 106 94
2.51399 0.399643 7.53866 124 98 94
3.59932 0.396832 7.2149 142 108 94
2.40687 0.468342 7.79533 140 129 118
3.8748 0.451735 7.36965 159 139 125
2.91632 0.474439 7.32508 168 133 122
2.37249 0.518494 7.8757 152 128 116
-1.00125 0.523426 7.84614 158 107 83
-1.13547 0.54915 7.84862 93 60 52
2.95032 0.532584 7.26661 120 52 46
-0.602874 0.577137 7.7406 212 158 123
0.761882 0.483759 6.20884 38 11 4
3.61523 0.592661 7.2597 201 176 155
2.82554 0.611331 7.39809 122 78 78
3.13194 0.58871 7.24363 122 42 38
1.37613 0.5692 6.81522 148 131 116
0.85543 0.531089 6.27478 80 69 54
3.00683 0.632127 7.27778 190 126 101
3.62058 0.636715 7.34381 46 31 20
3.10197 0.643556 7.2712 192 140 98
-0.0245009 0.605359 6.75156 118 91 81
2.88672 0.661606 7.37544 151 120 118
1.37814 0.625813 6.82722 120 106 98
2.91867 0.684662 7.36694 38 16 10
-0.00458531 0.633056 6.76014 202 182 177
2.99514 0.694039 7.3796 150 114 112
3.04927 0.687779 7.31335 60 28 22
3.02513 0.701075 7.33017 137 104 99
-2.39934 0.726294 7.5327 157 106 80
0.756223 0.60589 6.28219 47 34 18
-2.2959 0.730322 7.47062 197 146 116
1.39431 0.679511 6.90717 126 109 98
3.04882 0.718636 7.32013 78 56 50
0.0544518 0.672875 6.764 132 108 96
3.10112 0.732158 7.32812 34 19 17
1.18795 0.648885 6.46818 154 118 108
1.43093 0.704161 6.8492 101 78 66
0.537007 0.678469 6.33777 79 64 58
0.577995 0.678376 6.31988 89 75 70
0.526423 0.71132 6.31894 139 122 116
0.906854 0.739129 6.37942 142 126 120
0.556573 0.741257 6.36154 63 46 39
0.528542 0.747872 6.31877 70 51 42
0.920583 0.778334 6.38071 40 20 12
0.954819 0.794339 6.37251 36 21 12
-2.54827 0.893085 6.39379 106 34 16
-2.54491 0.978924 6.4343 149 92 80
0.293184 1.08704 6.86757 118 74 66
0.768494 1.11348 6.9174 98 19 14
-2.58893 1.03244 6.44087 131 63 28
0.451794 1.0994 6.80409 204 170 164
0.536879 1.10333 6.81477 148 112 112
0.563439 1.15174 6.78895 96 70 71
0.437595 1.2573 6.84185 140 107 100
0.465821 1.27536 6.83078 108 79 73
3.19201 -2.07639 6.24614 18 10 6
2.96159 -1.84531 6.01597 152 116 100
2.42749 -1.93814 6.4056 150 117 97
2.45581 -1.89343 6.36421 150 104 80
2.44453 -1.87659 6.37493 116 80 64
2.46919 -1.86073 6.40381 110 66 44
2.50712 -1.83292 6.33852 150 116 102
-0.561337 -2.10378 7.39398 90 56 42
-0.423341 -2.04574 7.36656 100 62 44
-0.694069 -2.0575 7.51233 120 74 56
-0.550154 -2.00609 7.33922 88 49 36
2.30667 -1.88019 7.0649 143 114 92
-0.36479 -1.94951 7.35907 104 63 44
-0.46262 -1.91484 7.36535 152 94 70
2.61151 -1.66176 6.41074 142 79 70
2.46563 -1.70105 6.61776 126 91 68
-2.27284 -1.71727 6.74355 116 76 50
2.95747 -1.57598 6.18105 184 166 158
-2.26858 -1.71489 6.75184 146 102 76
-0.821456 -1.92137 7.57684 156 107 81
2.57636 -1.62884 6.41952 34 10 1
-0.415284 -1.84988 7.33606 142 86 64
2.90105 -1.56651 6.21409 113 90 79
-0.761754 -1.85663 7.42677 92 39 22
-2.34362 -1.6704 6.77498 140 96 72
-1.95747 -1.6666 6.97129 168 112 87
-1.96449 -1.69373 7.10621 58 27 14
-2.35257 -1.59445 6.75911 149 101 76
-1.94209 -1.62185 6.96154 60 21 8
-0.281341 -1.73608 7.42148 101 62 52
-2.3087 -1.55845 6.72262 166 121 94
-2.41326 -1.5484 6.74111 125 82 61
-1.98571 -1.49659 6.85876 81 27 10
-2.13512 -1.41715 6.81841 141 85 69
0.0328388 -1.56357 7.64699 86 72 30
-0.400083 -1.52375 7.52452 128 79 54
-2.13001 -1.37763 6.87093 132 74 58
-0.011214 -1.52078 7.6544 35 12 3
-2.34759 -1.34811 6.81976 111 72 52
0.0322582 -1.511 7.70047 140 132 88
-0.61504 -1.46957 7.52801 158 100 70
-0.394055 -1.47816 7.5667 90 42 22
2.83729 -1.46612 7.69568 138 110 72
3.00203 -1.40168 7.37638 88 86 52
-1.87246 -1.35359 7.26052 50 14 4
0.0553782 -1.36859 7.56236 138 92 65
2.63021 -1.39465 7.75976 158 148 100
-1.80411 -1.25854 7.19708 54 17 5
2.59025 -1.31979 7.68779 110 46 26
0.10701 -1.28652 7.63316 118 102 68
2.99962 -1.25742 7.41982 75 74 38
-2.13204 -1.15353 7.14228 188 129 100
-0.126013 -1.1779 7.52373 134 87 66
-2.1299 -1.10338 7.13314 105 48 28
-0.0423569 -1.15435 7.45405 166 116 93
2.45408 -1.12877 7.36912 56 34 22
-2.47469 -1.07138 7.1059 106 60 44
-2.56862 -1.06203 7.16195 147 99 76
2.44147 -1.09918 7.36989 164 132 115
-0.667691 -1.06762 7.31716 144 95 65
3.06195 -1.00118 6.91803 73 36 30
2.62295 -1.0737 7.44435 159 116 96
3.08893 -0.982016 6.83748 146 60 34
-2.57344 -0.996034 7.17804 62 22 8
-0.694314 -1.00205 7.32887 118 72 42
0.0281376 -1.03948 7.64067 31 10 2
0.0755942 -1.04432 7.64405 144 124 98
-0.636509 -0.970813 7.26907 117 70 43
3.09945 -0.93035 6.93127 56 47 48
2.6591 -0.965276 7.61281 90 54 36
2.48263 -0.889591 7.56781 164 130 109
-0.00307847 -0.885866 7.64703 98 55 29
3.03438 -0.811917 7.05207 52 32 23
-0.102531 -0.883418 7.7161 28 8 1
3.14012 -0.798549 6.98404 64 58 61
-0.0500285 -0.876537 7.78056 162 142 116
-2.34402 -0.788427 7.19475 96 50 36
-2.60592 -0.773652 7.22098 174 144 113
-1.34525 -0.69411 6.68362 218 162 120
3.08529 -0.740928 7.13251 82 58 48
-2.49309 -0.729145 7.22491 152 94 75
3.37689 -0.711078 6.94006 56 17 9
3.35716 -0.695796 6.97752 49 23 22
-2.6189 -0.696586 7.23501 138 114 88
3.15508 -0.629923 6.96014 161 120 102
-1.4226 -0.566606 6.71159 168 108 85
3.03503 -0.584312 7.11 68 22 8
3.12832 -0.57902 6.9852 80 42 30
3.21636 -0.581181 6.97142 34 14 9
3.44699 -0.583473 7.03293 62 29 22
-2.51598 -0.58861 7.2998 142 118 99
3.06888 -0.567235 7.00906 82 34 18
-1.24709 -0.531523 6.65344 160 110 96
-1.37513 -0.507808 6.69267 118 59 40
2.4963 -0.53841 7.74919 162 130 105
2.51205 -0.527064 7.67499 162 130 110
-2.45499 -0.472067 7.36449 92 51 30
2.59559 -0.499512 7.77293 42 22 10
-2.14062 -0.432597 7.28256 68 25 11
2.50808 -0.451037 7.93091 102 68 34
2.44277 -0.402029 7.92471 117 92 70
3.56295 -0.314997 7.37824 20 13 8
3.17651 -0.280716 7.20394 68 48 38
3.19997 -0.250416 7.21477 167 146 133
3.14908 -0.195253 7.28541 47 28 12
3.30045 -0.175234 7.42278 32 23 18
3.12002 -0.129594 7.41464 109 78 59
3.37554 -0.0889191 7.30081 123 104 88
3.08615 -0.0074659 7.45114 111 64 32
3.05509 0.0944988 7.13046 130 88 65
2.27338 0.151052 7.83604 159 132 116
2.29496 0.168858 7.67001 124 46 34
0.678363 0.17443 6.50281 132 80 61
2.86003 0.236146 7.35729 186 155 146
2.4102 0.258503 7.63415 172 132 126
3.16745 0.26418 7.22174 133 87 66
2.45199 0.289282 7.58505 169 139 132
2.49002 0.292791 7.54418 103 75 73
3.29471 0.275502 7.15557 180 152 144
3.22096 0.288549 7.12969 108 62 40
2.51077 0.347489 7.53977 167 140 136
3.22279 0.328767 7.16255 165 126 112
2.78243 0.363744 7.47742 129 91 76
3.17518 0.348187 7.18471 130 88 64
3.30002 0.34297 7.17315 143 108 98
0.433187 0.341462 6.36678 54 8 4
2.50176 0.398694 7.51376 116 88 88
3.26725 0.382581 7.18512 134 94 80
2.36747 0.475037 7.82949 40 20 12
2.40502 0.465933 7.76357 136 126 116
2.92136 0.478456 7.32388 138 96 79
-1.00172 0.528199 7.87196 160 108 84
2.89495 0.507313 7.346 182 153 146
2.84684 0.537352 7.38955 151 104 100
-1.25271 0.568941 7.66409 51 18 10
2.65762 0.556794 7.49945 121 90 84
0.763055 0.484047 6.20116 43 16 8
1.41911 0.552012 6.81126 91 70 56
2.82452 0.613687 7.39507 135 95 94
3.127 0.591469 7.2293 128 47 40
-2.29063 0.617821 7.47456 185 134 108
-0.00546881 0.56764 6.85818 96 65 48
1.37062 0.566627 6.78519 148 131 116
3.10394 0.610552 7.26484 194 141 98
0.671911 0.524921 6.23588 74 58 46
0.846223 0.527308 6.23753 70 54 40
3.58493 0.624537 7.34284 44 28 24
3.6244 0.637936 7.3631 33 21 12
3.10957 0.651886 7.30891 192 144 102
2.89207 0.665013 7.38794 168 140 137
3.61684 0.686365 7.42916 179 154 143
-0.00531592 0.633843 6.76644 184 165 160
2.93466 0.688006 7.37214 31 14 10
2.97611 0.685514 7.32663 136 100 98
0.752452 0.606737 6.27888 69 56 42
3.00458 0.699558 7.34129 163 132 126
3.04948 0.694263 7.30194 37 15 14
-2.37604 0.72588 7.48675 160 109 84
3.09313 0.730553 7.31227 30 16 16
0.480207 0.651853 6.41205 198 171 160
0.575513 0.676133 6.30822 80 66 61
0.967742 0.699219 6.37821 99 82 76
0.900219 0.735743 6.3437 148 132 126
0.535003 0.758906 6.31862 50 30 22
0.572691 0.763878 6.34888 39 19 12
-2.53838 0.893973 6.3789 112 42 22
1.14925 1.01362 6.62653 140 38 33
0.563165 1.12904 6.82105 68 44 45
0.558677 1.1549 6.80344 124 100 100
0.391595 1.25951 6.88633 97 66 58
0.439009 1.26489 6.86774 175 144 136
0.482309 1.27193 6.78587 104 74 68
2.36516 -1.82281 6.71766 84 68 60
-0.476188 -1.98172 7.38157 124 76 60
2.63145 -1.69362 6.31624 128 18 14
-0.366309 -1.95861 7.38905 103 60 43
-0.471169 -1.92323 7.36505 160 102 76
-2.00351 -1.74516 6.9103 83 52 34
-0.426628 -1.85912 7.38098 132 80 60
2.9404 -1.58231 6.26005 164 141 134
3.30391 -1.65171 6.62994 155 136 128
-2.34279 -1.66858 6.76372 136 90 66
-2.03968 -1.66238 6.78015 95 59 45
-0.352626 -1.77433 7.39768 128 82 66
-0.705093 -1.72743 7.34278 121 46 25
-2.41573 -1.50172 6.74652 54 21 10
-1.90516 -1.5141 6.86028 145 90 74
-1.99392 -1.49823 6.86739 78 26 11
-0.0308316 -1.69583 7.76369 132 122 80
-2.12031 -1.43251 6.80663 172 109 88
-2.05306 -1.44034 6.8584 68 23 15
0.0266701 -1.59488 7.64754 86 74 34
-0.712444 -1.56189 7.72899 62 29 7
-0.418931 -1.52661 7.54714 130 81 56
-0.0233493 -1.51763 7.63288 36 12 3
-2.15 -1.36521 6.9073 136 76 58
-0.32802 -1.48626 7.5924 114 64 46
3.03383 -1.40162 7.2844 111 102 84
-1.88881 -1.35555 7.29333 45 10 2
0.136315 -1.40586 7.60456 92 74 33
3.04398 -1.35318 7.27587 117 106 90
3.12326 -1.26503 6.81378 128 38 31
-2.15518 -1.26025 6.97954 151 93 76
0.0454241 -1.37492 7.58133 136 90 63
-0.0948398 -1.35048 7.5424 134 86 67
3.07341 -1.29745 7.21753 100 96 80
0.130599 -1.34505 7.63294 84 60 24
3.05083 -1.18192 7.36729 150 130 116
2.44882 -1.13566 7.38221 128 104 90
-1.8974 -1.08421 7.16939 154 108 86
-2.55708 -1.07029 7.19075 168 114 89
2.40684 -1.08178 7.39415 172 140 119
3.11274 -0.989433 6.91961 144 54 32
-2.56645 -0.995832 7.16048 64 24 10
-0.694614 -1.0025 7.33245 118 73 42
0.0155171 -1.05048 7.68915 33 10 4
3.33028 -0.893034 7.01447 42 22 18
2.66528 -0.971621 7.67115 120 84 68
-2.50923 -0.879948 7.09606 162 106 74
-2.58035 -0.866139 7.12713 177 130 100
3.03239 -0.816238 7.05772 72 50 40
-2.56763 -0.802623 7.11286 94 51 24
-0.0492457 -0.872395 7.77607 162 139 115
-2.35943 -0.784678 7.20975 100 54 35
3.354 -0.759314 6.99576 123 80 70
-2.60772 -0.769028 7.20417 166 144 115
-2.57752 -0.770559 7.26316 54 22 12
3.305 -0.743152 6.9878 24 14 13
3.04761 -0.735554 7.05433 86 62 50
-1.71686 -0.722695 7.03265 110 72 46
-0.815788 -0.70029 6.89589 79 34 16
3.40594 -0.696778 6.91806 110 62 46
-0.35868 -0.74916 7.5643 95 48 32
3.45877 -0.670107 6.98891 72 24 14
-2.61071 -0.668445 7.22535 142 120 94
3.00531 -0.653132 7.04887 181 136 110
3.17676 -0.634903 6.92337 43 16 12
3.14168 -0.63674 7.04442 177 152 140
-2.59651 -0.630396 7.24571 117 86 62
-2.44814 -0.611041 7.09536 86 40 20
-0.832672 -0.587268 6.87461 82 30 15
3.21495 -0.583062 6.98977 42 16 9
2.98814 -0.580575 7.04974 58 14 2
3.11313 -0.57441 6.98292 91 51 36
-1.25049 -0.523661 6.62407 170 114 100
-1.36509 -0.521396 6.66754 108 52 34
3.48416 -0.52108 7.1929 167 133 116
-2.5088 -0.536635 7.32705 148 128 105
-0.708757 -0.541393 7.29845 109 59 42
3.16014 -0.518214 7.00692 180 153 140
2.49762 -0.546061 7.76359 164 132 108
2.524 -0.498443 7.79692 34 16 5
2.42535 -0.463477 7.9426 22 12 6
3.10067 -0.374331 7.11026 152 126 110
3.60427 -0.364221 7.30936 46 27 18
3.52778 -0.299404 7.44614 20 10 4
3.16564 -0.271059 7.22059 116 95 83
3.14222 -0.238844 7.09086 171 150 138
3.3084 -0.210263 7.33026 68 34 18
3.08932 -0.100839 7.38141 148 116 96
3.62225 -0.0721882 7.45978 181 158 146
3.06242 -0.00677296 7.40302 106 60 34
2.38818 0.0323004 7.6605 162 108 86
2.30732 0.17744 7.74773 122 35 26
2.71815 0.234345 7.38114 178 148 140
2.84118 0.250789 7.30962 170 141 134
3.54157 0.264616 7.13557 144 112 98
2.48524 0.299291 7.5702 101 74 72
2.68793 0.312528 7.3343 148 113 102
2.77957 0.356997 7.40863 136 94 78
3.29105 0.342138 7.17701 150 110 93
3.17595 0.3601 7.20391 149 114 96
2.3739 0.472417 7.88187 40 19 11
2.4239 0.47813 7.85065 127 120 110
2.88832 0.50845 7.3599 180 154 147
-1.13727 0.558173 7.87805 101 69 62
2.84438 0.544023 7.41891 160 112 106
-0.756648 0.595415 7.92036 212 159 125
-0.535269 0.593859 7.83032 196 142 108
-2.32885 0.608409 7.47106 170 120 97
1.37427 0.575396 6.86965 151 135 120
3.08533 0.616011 7.27406 188 146 99
0.0518973 0.580321 6.79386 162 134 122
-1.53571 0.67973 7.54374 140 90 69
2.93742 0.686203 7.39444 29 11 7
-1.70173 0.715027 7.53515 51 18 8
0.593564 0.607435 6.34182 128 96 91
3.00032 0.70915 7.38533 176 148 144
-2.31688 0.740852 7.51706 204 152 123
3.06746 0.721276 7.30294 29 16 16
1.43235 0.699922 6.87584 105 80 68
0.0209057 0.711767 6.8219 108 80 70
0.667625 0.680507 6.39096 139 117 112
0.789463 0.712466 6.40372 142 51 46
-2.55258 0.983125 6.45085 164 124 109
1.14146 1.01515 6.64103 153 31 27
0.451034 1.10718 6.82572 222 197 190
0.526663 1.10652 6.82579 126 98 98
0.490526 1.28275 6.85115 92 59 52
2.54556 -1.96116 6.33364 112 10 5
2.42204 -1.9496 6.45068 150 122 106
-0.360532 -1.96123 7.36608 86 48 32
-0.489794 -1.93858 7.37983 158 102 78
2.32056 -1.82972 7.07157 96 64 30
2.61195 -1.66096 6.42525 146 85 75
-0.305138 -1.87368 7.39922 114 72 56
-2.02019 -1.75537 6.96437 106 70 50
-0.438216 -1.85729 7.39868 146 88 66
-2.3383 -1.66537 6.76529 138 92 68
-1.95937 -1.71518 6.97637 161 108 80
-2.11805 -1.58946 6.78796 106 58 38
-1.99779 -1.49384 6.85307 76 25 12
-2.13747 -1.45292 6.84502 173 112 91
0.0118578 -1.5856 7.61141 82 62 26
-0.762211 -1.56737 7.70384 146 137 90
-0.438977 -1.53059 7.6064 128 78 56
-2.12745 -1.35721 6.86152 146 86 68
0.0298937 -1.50947 7.64727 68 50 18
-0.594953 -1.48443 7.59668 180 124 96
-0.401559 -1.48326 7.59264 92 46 25
0.108222 -1.44241 7.5967 90 70 23
0.124979 -1.40834 7.63722 90 68 29
3.04106 -1.35006 7.24752 148 126 112
-2.13439 -1.24208 7.03322 151 90 70
-1.8303 -1.27275 7.23429 50 16 7
3.11178 -1.22601 7.04622 148 58 45
3.15534 -1.19639 6.80894 124 12 8
3.06629 -1.25829 7.30763 132 115 102
0.0495498 -1.29349 7.59888 32 12 6
2.4023 -1.27648 7.50091 122 95 54
0.0551702 -1.25721 7.61754 42 18 6
-2.13105 -1.15973 7.13723 184 124 96
2.83501 -1.21785 7.64656 66 38 15
3.04765 -1.17795 7.35467 152 126 113
-2.13207 -1.09593 7.10997 106 49 30
-1.8923 -1.08408 7.16691 156 108 88
0.0635952 -1.15256 7.57036 156 108 83
2.42907 -1.10411 7.4906 175 142 120
-0.608018 -1.04607 7.31278 138 86 64
-2.61719 -0.979135 7.1369 157 144 124
-2.56376 -0.960981 7.15089 61 32 21
-0.664716 -0.98036 7.25754 126 80 54
3.05196 -0.869667 7.06431 149 120 102
-2.58601 -0.869787 7.16314 192 144 114
2.52016 -0.917116 7.79451 138 102 78
2.59563 -0.868584 7.60297 64 26 16
-0.0458819 -0.872923 7.77005 165 144 122
3.36921 -0.761771 7.049 123 80 70
-2.56154 -0.766041 7.2141 55 22 11
3.04834 -0.746066 7.06008 96 72 64
3.30036 -0.743741 7.00733 11 8 8
-0.0863732 -0.811619 7.77513 88 52 29
2.44079 -0.786349 7.6361 114 74 46
-0.367051 -0.755598 7.66475 93 46 30
3.06759 -0.690279 7.01455 152 123 113
3.35236 -0.687641 6.98488 54 28 27
3.13026 -0.636422 7.03787 178 152 138
-2.45535 -0.60489 7.23972 35 7 2
3.20968 -0.584039 6.98834 70 40 33
3.02129 -0.584634 7.16231 60 16 2
-0.706968 -0.537785 7.28453 102 52 35
3.14965 -0.512883 7.03287 180 156 141
2.52713 -0.54417 7.69795 162 128 108
2.38453 -0.513496 7.97973 160 134 112
-1.20858 -0.408995 6.74627 124 72 58
2.3997 -0.459065 7.86402 20 10 4
3.09582 -0.377304 7.09164 161 136 117
2.3294 -0.346297 8.10433 146 90 63
2.35177 -0.317845 7.97369 84 56 32
2.97507 -0.297311 7.45658 46 18 6
-1.84837 -0.23728 7.38724 173 126 99
2.27365 -0.157985 8.03265 162 134 120
0.708238 0.050104 6.81744 103 82 62
2.28541 0.144082 7.87549 172 142 127
2.99601 0.118495 7.18061 136 100 82
3.05522 0.1763 7.07824 140 90 64
2.36231 0.217546 7.62946 138 26 18
2.70614 0.232831 7.32824 179 150 141
2.42327 0.272417 7.62232 167 132 126
3.31827 0.272655 7.20182 174 148 140
2.4724 0.306046 7.5424 100 72 72
2.77625 0.341165 7.33969 137 94 78
3.19709 0.367508 7.23713 152 120 104
0.426497 0.339223 6.37555 66 14 8
2.49193 0.40211 7.54228 102 76 76
3.25808 0.384344 7.21071 134 94 78
-0.597188 0.437647 7.79003 190 137 116
-0.776491 0.593299 7.9206 210 156 121
-0.603309 0.590208 7.76784 218 164 128
1.22754 0.529908 6.52436 151 134 120
0.644262 0.540548 6.30414 88 56 44
3.5912 0.63639 7.3599 40 26 22
-1.53987 0.688003 7.54897 130 81 61
2.93228 0.685535 7.38484 32 12 6
-0.00982973 0.635347 6.75775 130 109 100
0.870478 0.592499 6.28394 96 65 50
0.746235 0.606249 6.27485 81 68 56
3.021 0.724269 7.44337 174 147 143
0.994298 0.627148 6.37826 158 122 121
1.18637 0.651126 6.44497 158 124 114
0.661833 0.683172 6.38362 136 116 112
0.929893 0.778046 6.35284 36 18 10
0.285496 1.08715 6.85008 123 86 76
0.44601 1.10394 6.79775 132 116 109
0.434704 1.16711 6.86696 154 125 118
0.542675 1.15832 6.78437 108 84 84
0.430983 1.26478 6.86999 136 104 96
0.491096 1.27398 6.81728 94 61 54
2.41899 -1.94166 6.44392 149 122 109
2.45637 -1.87476 6.41043 109 64 40
2.31506 -1.94354 6.89394 96 88 69
2.60306 -1.67953 6.29148 126 40 34
-0.416292 -1.84587 7.40198 138 86 65
3.00372 -1.61547 6.47994 142 117 110
-0.373881 -1.78543 7.42045 134 86 68
-2.13561 -1.59711 6.82744 95 52 34
-0.715632 -1.71829 7.33316 146 72 48
-2.43477 -1.56459 6.75848 111 69 49
-2.41432 -1.55789 6.84952 58 29 19
-0.368213 -1.68862 7.42786 134 82 62
-0.0386629 -1.6994 7.75876 114 102 62
-2.36226 -1.43771 6.77409 150 106 80
-0.789183 -1.57894 7.7609 146 141 92
-0.703717 -1.55832 7.73306 63 22 5
0.0305495 -1.52151 7.67259 118 107 66
3.0176 -1.39575 7.28944 117 104 86
-1.8806 -1.33998 7.2478 58 23 10
-2.11258 -1.25195 6.98264 168 102 77
-0.0982256 -1.3519 7.56078 136 86 68
-0.193651 -1.28827 7.58372 64 22 12
-2.16006 -1.09397 7.15475 102 44 26
2.47807 -1.15868 7.61746 160 133 116
-2.56104 -1.06968 7.19263 167 112 86
-2.62998 -0.983353 7.15615 158 143 123
-0.0567639 -0.865508 7.71421 130 108 84
2.45802 -0.860866 7.69067 102 57 31
-0.0994678 -0.803331 7.79423 89 53 28
2.44913 -0.791521 7.66671 110 70 44
2.79519 -0.742628 7.79193 111 96 76
3.15492 -0.645709 7.1219 178 152 137
-2.59615 -0.636054 7.23646 128 102 80
3.23546 -0.597678 7.04358 60 30 22
-1.42461 -0.552213 6.67031 176 114 90
3.12366 -0.57856 7.11214 119 71 53
-1.36566 -0.531288 6.68048 77 26 13
2.50627 -0.568084 7.79015 166 135 112
-2.3439 -0.506884 7.13507 90 40 20
2.366 -0.518666 7.95893 145 121 96
2.24397 -0.40286 8.23293 144 128 102
2.43242 -0.283513 7.92171 129 104 83
3.05396 -0.0864525 7.51988 98 64 43
3.05486 -0.0843924 7.3156 160 125 104
2.8349 0.25634 7.29509 176 150 144
3.31297 0.268746 7.18593 166 136 127
2.46898 0.305274 7.55125 102 74 72
3.12325 0.313676 7.23056 174 146 133
3.16443 0.355134 7.19265 152 120 102
-0.59483 0.431288 7.84011 189 137 116
2.34742 0.459458 7.78125 67 44 35
2.41437 0.474613 7.80909 148 130 122
2.65071 0.552617 7.52684 152 122 115
0.671548 0.497712 6.27719 80 58 48
0.86491 0.518324 6.2638 93 85 70
2.8308 0.634873 7.38884 126 87 86
2.90978 0.674734 7.30897 32 13 8
-1.67974 0.708608 7.47043 64 28 15
-2.33836 0.729473 7.4612 180 128 100
-1.60351 0.716742 7.44687 72 28 16
0.978673 0.623889 6.39805 144 103 98
3.06276 0.716813 7.30752 32 20 20
0.521028 1.11173 6.82926 95 68 67
0.4326 1.1577 6.83324 107 79 74
2.31548 -1.84561 6.70875 84 74 64
-0.502905 -1.95522 7.30895 162 104 85
2.5181 -1.72289 6.49326 120 28 22
-1.99834 -1.73352 6.86313 52 26 8
-0.414624 -1.83436 7.38788 148 90 70
-1.93034 -1.64346 6.93575 126 80 60
-0.715749 -1.72687 7.33078 121 46 25
-2.1082 -1.52283 6.71715 80 32 18
-2.45322 -1.48277 6.93 136 95 71
-0.00415983 -1.5952 7.6612 82 56 24
-0.465534 -1.50433 7.5347 148 94 68
-0.585856 -1.49449 7.60176 162 104 78
-2.1559 -1.3016 6.90653 134 78 60
-0.0922207 -1.36839 7.55352 121 71 52
0.0180384 -1.37851 7.57669 143 93 66
0.0318375 -1.29175 7.59348 27 8 2
2.40018 -1.26595 7.42475 94 59 26
-2.13235 -1.16298 7.16498 179 120 92
3.05834 -0.984909 6.97398 23 12 10
-2.50888 -0.865836 6.97831 171 119 87
-2.53705 -0.793601 7.1295 66 28 16
-0.0508149 -0.868629 7.7038 165 146 122
-2.6315 -0.768045 7.18204 163 142 123
-2.37329 -0.773779 7.14436 102 56 36
-2.4827 -0.722432 7.14274 140 87 62
3.09625 -0.655183 6.98432 178 151 137
3.09909 -0.581523 6.97788 113 70 55
-1.71392 -0.487 6.79361 152 97 70
3.12072 -0.50568 7.03451 184 157 138
3.21445 -0.257908 7.28901 98 78 66
2.9962 -0.236352 7.73487 86 69 62
3.05518 -0.0386866 7.42971 98 56 31
3.1221 0.10048 7.26728 144 104 84
2.83585 0.254137 7.26016 184 158 152
2.45925 0.291424 7.51551 146 117 110
3.09292 0.298186 7.19254 145 104 84
3.26735 0.364661 7.38236 133 90 66
2.37257 0.451328 7.88909 78 70 57
2.39082 0.53342 7.86393 157 135 123
-1.0622 0.551734 7.88465 82 34 18
-1.29206 0.566476 7.65869 46 16 11
-0.767336 0.565355 7.68596 214 163 124
-1.52186 0.684263 7.52308 131 82 60
2.90409 0.66031 7.30844 66 38 33
-1.27951 0.722498 7.63247 74 37 27
0.0154809 0.652401 6.78725 128 104 98
0.461673 0.642915 6.41025 156 122 114
1.20563 0.649881 6.49378 146 118 108
1.04515 0.686042 6.41126 135 116 115
0.928311 0.746924 6.34033 68 50 44
0.887816 0.863288 6.63495 134 110 104
0.974815 0.828401 6.42075 138 120 115
0.599438 1.10348 6.80543 74 22 20
0.82603 1.12122 6.91227 129 62 60
0.729527 1.17895 6.79941 56 22 20
0.534726 1.26064 6.85899 82 48 40
2.23077 -2.1877 7.08097 146 126 92
-0.472526 -2.14368 7.35538 92 66 42
-0.422555 -2.03656 7.36136 116 76 56
-0.687359 -2.04528 7.41988 151 103 84
2.44643 -1.80434 6.56735 103 75 64
-0.76446 -1.965 7.47757 168 114 91
2.60497 -1.65593 6.40787 144 96 86
2.60066 -1.65218 6.37102 174 124 116
2.55261 -1.67144 6.47613 138 86 76
2.47806 -1.69815 6.60825 126 90 73
2.47309 -1.66986 6.58377 176 139 118
-0.425567 -1.87221 7.40085 123 74 62
2.58735 -1.62352 6.4267 63 34 23
-0.619047 -1.84905 7.34659 86 32 14
-0.743771 -1.85472 7.39407 76 19 4
-0.716919 -1.82489 7.39313 128 65 40
-2.15948 -1.41767 6.86518 121 70 56
-0.705787 -1.58895 7.77591 74 28 8
-0.723008 -1.55976 7.75652 83 50 20
-0.316448 -1.48759 7.58881 128 78 62
-0.622236 -1.46142 7.54969 194 140 108
3.03213 -1.39795 7.23279 85 70 54
-0.762739 -1.48997 7.77236 148 104 69
-0.201585 -1.33063 7.55337 140 93 78
3.04281 -1.25288 7.28745 119 104 90
2.98798 -1.25067 7.41199 61 52 23
-2.12426 -1.17495 7.12192 145 92 66
-1.05491 -1.36439 8.36231 109 73 38
-1.05059 -1.29232 8.26697 110 68 41
-0.699966 -1.0003 7.29813 120 75 45
-2.79027 -0.710529 5.24986 86 88 115
0.0370989 -1.03659 7.65078 45 19 4
-2.57103 -0.872582 7.19477 205 150 111
-2.58456 -0.862954 7.12399 188 138 106
-0.0756671 -0.900435 7.69023 62 23 8
-0.0994574 -0.877147 7.75009 28 2 0
-0.063469 -0.879682 7.75561 162 138 122
2.4597 -0.867524 7.61858 62 20 3
-2.60143 -0.774626 7.24001 167 138 111
-2.48881 -0.725718 7.24005 183 127 106
-0.813209 -0.680547 6.96138 97 50 33
-1.441 -0.594252 6.78636 150 93 71
-0.890461 -0.578831 6.83833 144 91 77
3.19516 -0.584173 6.98585 126 89 77
2.41651 -0.541013 7.8115 42 23 6
2.40126 -0.525118 7.79605 56 40 22
2.38515 -0.482673 7.83327 114 90 76
-2.53736 -0.230896 5.42307 48 22 21
2.37725 -0.306708 8.07541 78 50 23
-2.26786 -0.213854 6.20829 110 46 6
2.25581 -0.186513 8.06504 108 74 52
3.68726 -0.160482 7.319 65 48 35
2.25464 -0.155022 8.08519 162 126 102
3.60231 -0.0738481 7.40655 187 166 152
2.26424 0.159446 7.93137 118 99 79
2.35075 0.448782 7.81533 36 18 7
-2.59013 0.346622 5.78134 97 93 102
2.40801 0.472374 7.84143 138 125 115
-2.57438 0.35692 5.80118 114 108 119
-2.66309 0.372268 5.73936 23 17 27
-2.59176 0.375453 5.79851 109 106 112
-1.00567 0.527317 7.85993 174 126 102
2.89515 0.510348 7.31853 158 122 115
0.763321 0.49073 6.21281 44 24 16
3.01331 0.585226 7.26175 164 103 74
2.82922 0.611611 7.40137 101 60 60
3.13773 0.593035 7.24747 111 47 41
3.10339 0.595003 7.24343 181 122 94
2.99509 0.608856 7.27075 174 118 96
0.670599 0.524896 6.22836 54 40 27
2.86181 0.656051 7.40067 48 18 14
3.00431 0.640354 7.27709 176 130 106
2.89147 0.663126 7.38557 153 124 120
-0.00653395 0.633102 6.75255 182 162 155
0.0142383 0.643561 6.83938 174 152 146
3.05428 0.693277 7.33607 38 16 14
-2.41808 0.741029 7.61638 166 114 92
-2.30525 0.744865 7.54057 197 146 118
3.10648 0.713794 7.31025 43 22 17
3.10095 0.738315 7.32741 52 32 28
0.608294 0.709468 6.36587 99 89 86
0.545329 0.789857 6.3193 62 40 31
1.14663 1.01558 6.61469 150 86 76
0.604081 1.1371 6.79742 85 49 50
0.426516 1.15161 6.83496 136 109 102
0.616912 1.25672 6.7943 126 97 94
-2.7492 1.52717 6.01834 125 40 40
2.43351 -2.81748 7.4545 134 120 74
2.3351 -2.04601 6.43613 146 104 77
2.43916 -1.92972 6.41273 136 107 90
2.45196 -1.89343 6.3673 154 106 84
2.59686 -1.85436 6.23814 138 100 80
-0.458765 -2.13089 7.34828 90 64 42
2.59801 -1.65452 6.3856 144 82 74
2.56608 -1.63869 6.46686 94 60 52
-0.75096 -1.86318 7.4493 71 18 6
-0.677573 -1.81741 7.35007 134 72 51
-2.42056 -1.53819 6.78458 124 80 59
-1.82391 -1.47122 6.94283 100 36 20
-0.704639 -1.57895 7.74872 84 47 24
3.87151 -1.4805 7.54496 26 14 8
-0.559901 -1.47995 7.57965 196 141 110
-0.748903 -1.4911 7.70615 158 114 79
3.85776 -1.43945 7.51512 47 32 21
3.96034 -1.38903 7.70881 151 119 90
-2.15078 -1.15853 7.1773 154 102 74
3.28584 -0.955151 6.94431 41 10 6
-2.7927 -0.709053 5.24948 86 88 115
-2.58149 -0.956309 7.18062 48 20 10
-0.812189 -0.680338 6.91812 90 43 26
-1.55971 -0.662629 7.08017 80 35 14
3.15032 -0.646139 7.01105 172 144 131
3.46772 -0.638099 7.05387 78 42 32
2.41486 -0.476186 7.845 54 34 20
-2.87515 -0.207272 5.29646 178 140 131
3.14451 -0.293989 7.15936 178 151 140
2.82989 -0.219165 7.42357 61 44 38
2.25085 -0.183489 8.06458 110 74 47
2.24324 -0.122753 8.11065 111 76 46
0.381896 0.19107 6.28172 76 14 10
2.51252 0.391578 7.51978 116 90 84
-2.59212 0.347197 5.7836 48 45 56
-2.65761 0.36495 5.72618 28 22 34
-2.60249 0.374391 5.83517 108 106 112
2.91381 0.525526 7.2798 140 85 71
2.95806 0.676685 7.36687 32 10 8
2.94245 0.697667 7.38849 44 22 18
3.04112 0.720904 7.31282 44 26 19
3.0427 0.726189 7.27944 48 27 22
0.525261 0.753408 6.33429 99 79 71
-2.91347 0.856112 5.78772 144 52 30
0.715909 1.22537 6.8067 71 42 41
0.391658 1.25381 6.86164 99 68 59
2.43196 -2.77934 7.35936 100 84 43
2.79703 -1.95259 6.21301 175 136 112
2.45475 -1.89531 6.36555 134 86 64
2.59576 -1.85175 6.22898 134 94 74
2.36499 -2.23593 7.54874 132 92 56
2.29851 -1.9537 6.86034 89 76 56
-0.61968 -2.06492 7.39887 87 55 44
2.65343 -1.7019 6.3228 124 36 28
2.50165 -1.72056 6.49188 114 20 17
-0.809424 -1.90783 7.51259 164 114 88
-2.42651 -1.5456 6.78638 131 87 66
-1.83944 -1.49355 6.95854 103 38 22
-2.13365 -1.41886 6.84193 158 98 79
-0.326469 -1.49199 7.59631 108 60 45
-1.78744 -1.38957 7.12451 158 138 98
3.0359 -1.39927 7.2532 83 72 54
3.09817 -1.29708 7.24423 80 70 53
-0.196609 -1.33995 7.60339 135 88 72
-1.82161 -1.26684 7.24721 60 20 3
-2.11672 -1.16778 7.21195 194 138 104
-1.00987 -1.2815 7.89509 117 76 48
3.27641 -0.953375 6.92462 56 20 11
-2.78893 -0.708675 5.23999 94 94 120
-0.617865 -0.960837 7.2382 129 82 58
3.30276 -0.878961 6.92069 106 64 48
-0.0583617 -0.877185 7.74575 166 143 124
3.31466 -0.763821 6.94789 66 42 38
-2.69922 -0.589739 5.40758 150 136 122
-2.33017 -0.784582 7.17045 92 45 34
3.30134 -0.73604 6.96993 24 12 11
-1.70025 -0.716791 6.99862 124 83 56
-0.370092 -0.72546 7.52013 106 63 46
3.13059 -0.638445 6.98862 170 145 134
3.1903 -0.638413 6.95076 42 17 11
-0.823108 -0.586775 6.88761 81 28 12
2.97513 -0.592937 7.07808 84 40 19
-2.47508 -0.601194 7.30987 42 14 8
3.22604 -0.576284 6.99323 35 12 6
3.17616 -0.563086 6.95408 91 54 40
3.26326 -0.457747 7.17581 106 70 45
-2.58188 -0.261418 5.35317 136 66 69
-2.58381 -0.208552 5.37421 148 94 97
-2.53002 -0.162169 5.75029 164 132 109
2.83904 -0.19762 7.37715 15 9 4
0.676156 0.129652 6.46622 130 87 62
2.48642 0.284899 7.522 105 78 74
-1.313 0.371786 7.56979 138 93 72
-2.58116 0.354645 5.7904 122 116 124
-2.54194 0.380162 5.73372 64 60 68
2.87101 0.544758 7.44902 121 76 73
2.9542 0.534883 7.349 142 88 74
2.65492 0.559261 7.49403 109 79 74
2.85735 0.646353 7.3921 54 17 16
-1.69526 0.718759 7.51557 54 19 7
0.0284484 0.706925 6.77298 114 88 81
0.440708 0.702765 6.36483 168 149 142
0.536457 0.774767 6.34064 64 44 36
0.44096 1.15249 6.81515 149 125 119
0.409192 1.26577 6.91537 100 68 60
-2.33083 1.33176 6.39434 120 36 30
-0.346697 -2.19095 7.45144 38 17 4
2.59942 -1.78345 6.25912 122 81 63
2.35443 -1.87499 6.63401 96 86 72
-0.631506 -2.03595 7.45514 88 47 34
-0.588741 -2.00752 7.34649 64 27 10
2.43874 -1.78496 6.55948 102 73 60
2.50111 -1.72017 6.49038 111 20 16
2.5367 -1.6685 6.45111 136 82 71
-2.00628 -1.75234 6.93754 123 86 64
2.49703 -1.62926 6.57691 160 134 120
-1.93891 -1.74464 7.05699 145 103 81
-0.830549 -1.82798 7.53553 110 64 41
-2.08269 -1.62712 6.80765 60 24 11
-0.0316108 -1.69328 7.74969 152 143 100
-0.738342 -1.57586 7.71355 153 148 100
-0.202232 -1.53119 7.64766 132 83 70
0.00116173 -1.46836 7.68074 51 24 8
-0.193133 -1.34187 7.6086 130 83 67
3.03491 -1.18188 7.32491 118 100 85
3.19252 -1.01571 6.76718 167 94 69
0.0321655 -1.07035 7.58596 55 23 8
2.88148 -1.08274 7.73919 92 102 71
-2.57178 -0.958165 7.17563 40 10 2
-2.57705 -0.863237 7.11632 185 134 100
3.31764 -0.762816 6.94398 80 52 46
3.18769 -0.60883 6.99336 125 86 73
3.45134 -0.427548 7.19184 88 64 50
-2.54838 -0.312497 5.45127 136 65 68
-2.51487 -0.26395 5.42078 155 135 136
-2.5825 -0.242686 5.34677 144 74 78
-2.54502 -0.239191 5.44895 72 46 45
-1.56476 -0.304347 7.04408 108 62 42
-2.57926 -0.226979 5.34414 156 100 102
3.08278 -0.27119 7.14931 173 141 118
-2.53691 -0.167996 5.75879 155 120 96
2.8452 -0.199712 7.39528 14 8 4
2.86646 -0.205408 7.34352 18 10 6
-2.18008 0.0126619 6.14997 130 46 22
2.24839 0.171631 7.96635 80 56 38
-2.56839 0.327504 5.79722 24 18 38
3.37485 0.532331 7.22641 144 70 57
-0.596645 0.581567 7.74165 198 144 112
3.00867 0.624376 7.27326 182 132 103
2.85028 0.644594 7.38154 49 16 12
1.38195 0.626189 6.82009 130 111 103
-1.68772 0.714153 7.48 56 20 8
0.865069 0.589335 6.20835 104 62 50
3.07216 0.724753 7.29648 28 18 17
0.602861 0.707795 6.40113 99 88 86
0.472262 0.727793 6.31611 85 73 68
-2.77438 0.8284 6.05647 152 104 88
-2.5408 0.982326 6.40946 156 104 94
0.540417 1.11191 6.84433 181 168 170
2.61316 -1.80847 6.33716 104 54 30
2.35573 -1.87688 6.65338 90 84 70
2.507 -1.7257 6.51212 114 40 34
2.61353 -1.66635 6.42782 104 36 30
-2.01225 -1.82777 7.12119 38 22 10
-0.423202 -1.89131 7.36026 72 32 20
-1.95709 -1.73131 7.02244 159 110 87
-2.11406 -1.58616 6.77891 90 49 37
-1.84395 -1.48942 6.94902 116 52 34
-0.00183365 -1.63627 7.65596 87 70 32
-2.38642 -1.45453 6.86616 152 106 84
-0.216454 -1.54049 7.65257 115 68 52
2.86545 -1.53647 7.67347 106 60 26
-0.00787692 -1.47431 7.72925 48 20 8
0.0566926 -1.29865 7.62185 29 10 3
-2.13712 -1.15796 7.13626 170 116 88
-0.123147 -1.17874 7.55356 170 122 99
-2.60362 -0.974399 7.12547 156 142 118
-2.66905 -0.676448 5.36272 40 38 60
-2.47453 -0.608081 7.31374 38 10 6
3.08533 -0.567841 7.05513 84 42 26
2.41513 -0.591741 7.90808 162 130 108
2.40939 -0.538622 7.87433 30 13 4
3.27687 -0.442577 7.20432 95 58 36
2.59385 -0.478615 7.81798 50 28 17
-2.52963 -0.311534 5.40317 136 66 68
-2.17729 -0.430554 7.36176 63 22 14
-2.58775 -0.262516 5.36805 136 68 70
-2.58562 -0.227343 5.36136 147 88 91
-2.53292 -0.237591 5.42061 75 54 50
-2.58456 -0.208864 5.38569 158 114 117
-2.55286 -0.211426 5.43848 150 132 134
-2.24941 -0.212138 6.19489 112 27 6
2.83625 -0.207844 7.39198 14 9 6
-2.51646 -0.144924 5.77953 113 73 59
1.1034 0.100578 6.8968 131 42 28
2.22423 0.176788 7.90604 78 52 36
2.41371 0.265699 7.67245 148 92 88
2.82539 0.336413 7.4673 132 92 76
3.21377 0.330563 7.15824 142 104 85
3.28934 0.369563 7.20605 132 92 76
-2.57944 0.323117 5.81346 24 20 40
-2.65539 0.347924 5.74964 20 16 30
-1.00926 0.529286 7.91744 163 114 90
-0.597968 0.583819 7.72949 199 146 116
3.1028 0.531195 7.15647 104 105 96
-2.69399 0.43193 5.62119 28 20 33
1.39155 0.544054 6.7432 91 71 57
3.01957 0.624002 7.29785 182 132 105
2.84544 0.640656 7.40127 110 74 72
2.88334 0.660179 7.38954 92 59 56
0.88005 0.580521 6.18571 130 97 87
0.634912 0.635472 6.34327 147 125 118
0.578015 0.68709 6.33876 76 64 60
0.565751 0.750736 6.29894 36 20 13
0.951548 0.794756 6.40499 36 20 13
-2.92506 0.851972 5.80282 132 22 14
0.431841 1.26527 6.88337 131 100 92
-2.82879 1.14712 6.1849 135 74 25
2.45523 -1.8637 6.38075 108 63 40
2.5911 -1.78999 6.2678 117 72 48
-0.476926 -1.9719 7.33936 151 101 83
