ply
format ascii 1.0
element vertex 1286
property float x
property float y
property float z
property uchar red
property uchar green
property uchar blue
end_header
0.764405 -0.335734 1.86126 216 209 204
0.191576 -0.256998 1.5855 86 79 94
0.399119 -0.259413 1.60596 216 224 212
0.507477 -0.194849 1.6296 62 67 60
0.679401 -0.204655 1.82077 160 163 148
0.501113 0.182902 1.53854 105 112 108
0.630954 0.204043 1.53646 101 131 146
-0.0130359 0.575174 1.75697 68 75 85
0.29341 -0.427555 1.55328 138 107 134
0.25944 -0.36868 1.55315 82 28 54
0.38079 -0.357386 1.62622 112 106 108
0.489703 -0.248074 1.62219 34 40 24
0.638497 -0.189349 1.75147 37 28 31
0.574478 -0.159449 1.65567 113 102 84
0.765019 -0.337423 1.85964 216 209 204
0.499942 -0.160125 1.60651 92 100 99
0.389739 -0.0233229 1.5218 64 71 66
0.391146 0.136171 1.5374 76 106 126
0.4031 0.202278 1.58584 65 50 37
0.56871 0.20163 1.49728 164 160 162
0.459028 -0.690879 1.87885 116 50 68
0.67097 -0.19066 1.78481 121 119 95
0.683756 -0.179005 1.80647 216 218 222
0.330547 -0.146969 1.49793 68 57 38
0.5743 -0.156913 1.66072 128 126 102
0.163452 -0.0223342 1.56957 124 126 122
0.608685 0.20343 1.52387 166 176 175
0.0735536 0.289709 1.71272 32 33 29
0.504245 -0.240413 1.61953 176 178 167
0.396923 -0.180657 1.51967 249 252 255
0.640136 -0.186848 1.73554 48 46 44
0.348493 -0.131027 1.50525 92 84 62
0.369389 -0.117606 1.51758 42 50 34
0.47164 -0.0141887 1.5656 44 42 34
0.398897 -0.0102677 1.52079 212 218 230
0.235615 0.136512 1.55214 82 96 96
0.419308 -0.228254 1.55279 120 129 134
0.25325 -0.201269 1.56434 43 34 21
0.279352 -0.0427209 1.51903 38 34 20
0.203786 0.0717066 1.54201 90 104 110
0.313505 0.13054 1.54113 86 98 101
0.0345914 0.308663 1.68094 84 78 65
0.369943 -0.364154 1.62177 167 144 152
0.473008 -0.284797 1.62995 110 116 113
0.575577 -0.154047 1.6719 124 126 104
0.483417 -0.256138 1.60309 134 142 127
0.367731 -0.249808 1.56996 146 145 136
0.284866 -0.0984333 1.50994 162 161 159
0.470049 -0.279996 1.62444 138 144 142
0.58931 0.265488 1.60436 187 192 194
0.487699 0.405185 1.64426 163 163 152
0.263774 -0.0924478 1.51508 122 134 122
0.488727 0.421367 1.69151 185 186 174
0.464003 -0.267495 1.62218 212 212 216
0.482072 -0.221612 1.63314 27 32 38
0.504013 -0.198263 1.62093 60 67 54
0.299827 -0.0239007 1.53209 80 72 54
0.489411 -0.24413 1.6227 66 70 52
0.554934 -0.164095 1.65794 182 187 188
0.54572 -0.194194 1.64846 182 190 174
0.707953 -0.0607937 1.82835 128 90 92
0.378456 -9.2757e-06 1.52661 216 225 238
0.308775 0.056024 1.53959 68 74 75
0.317849 0.0631189 1.53403 48 59 54
0.278483 -0.267856 1.60832 6 20 48
0.516738 -0.135394 1.00504 138 138 134
0.562895 -0.173036 1.66849 156 145 138
0.369641 -0.120357 1.51328 68 78 66
0.359615 -0.117598 1.5074 174 184 174
0.360972 -0.120981 1.59151 138 150 143
0.367226 -0.111212 1.51787 152 156 144
0.389722 0.203805 1.5529 86 102 104
0.480613 0.357742 1.64698 172 162 122
0.385266 -0.240675 1.57422 134 134 130
0.562891 -0.173667 1.66782 151 140 132
0.478004 -0.0434854 1.5308 136 138 122
0.372249 0.0603747 1.54458 109 130 136
0.547786 -0.192351 1.64932 199 196 184
0.338188 -0.266665 1.59157 133 130 122
0.43006 -0.191219 1.57329 92 100 115
0.321914 -0.135238 1.51126 84 88 75
0.374289 0.155585 1.53803 124 141 146
0.165348 0.450618 1.71622 84 72 37
0.374911 0.152814 1.53943 125 144 153
0.382166 0.418868 1.6809 111 96 65
0.37742 0.624323 1.73442 62 88 122
0.673662 -0.0436273 2.00974 82 54 62
0.16497 0.446581 1.71508 80 68 34
0.45484 -0.708101 1.91351 124 69 82
0.28397 -0.312409 1.61347 106 100 89
0.258299 -0.254288 1.56926 72 78 86
0.191409 -0.252666 1.58911 99 105 110
0.278886 -0.0620094 1.52836 100 90 73
0.362684 -0.355751 1.62105 152 155 146
0.280196 -0.311932 1.61726 109 104 92
0.428752 -0.315108 1.60845 159 155 157
0.355236 0.53961 1.72005 40 32 20
0.590524 -0.0330123 1.67062 78 90 98
0.363189 -0.372694 1.62852 120 84 92
0.331537 -0.259811 1.60551 40 44 39
0.19473 0.0864253 1.56446 76 88 95
0.376596 0.15954 1.53508 110 129 140
0.297346 -0.320405 1.58697 140 135 135
0.420791 -0.254663 1.60687 60 64 60
0.427862 -0.191286 1.55932 82 89 110
0.457688 -0.195409 1.59603 47 64 93
0.471086 0.213669 1.58872 75 64 46
0.340488 -0.246257 1.57844 53 40 32
0.364068 -0.104182 1.51584 120 132 120
0.447434 -0.158083 1.55454 160 164 162
0.454581 -0.454487 1.52913 148 114 118
0.302427 -0.356114 1.62306 135 119 124
0.47537 -0.0574762 1.53771 139 140 133
0.39807 0.00640264 1.53327 202 212 218
0.303205 -0.303839 1.59926 113 116 114
0.509249 -0.241062 1.61425 181 185 178
0.591101 -0.242387 1.6314 168 135 150
0.573194 -0.159614 1.67083 118 116 99
0.541612 -0.120551 1.52842 134 130 127
0.584733 -0.119904 1.66187 146 140 144
0.281919 -0.0926326 1.51272 138 132 124
0.652852 -0.0231568 1.82849 69 58 64
0.422465 -0.00475692 1.70682 178 192 190
0.529607 0.00281075 2.06497 190 196 195
0.519445 0.0171114 1.57848 168 186 186
0.1536 0.0953646 1.5501 38 54 59
0.590866 0.205979 1.50071 88 96 83
0.467852 0.366394 1.98915 90 81 72
0.440221 0.316618 1.69056 156 146 112
0.525337 0.573414 1.88805 41 46 52
0.476426 -0.332091 1.27881 74 61 64
0.766922 -0.336072 1.85779 218 211 204
0.502539 -0.18943 1.63443 166 170 156
0.65646 -0.120216 1.69357 120 71 110
0.342966 0.468848 1.6868 125 110 83
0.556169 -0.231979 1.63111 69 31 46
0.562884 -0.168066 1.66082 122 116 112
0.470996 -0.145187 1.54283 177 174 177
0.573885 -0.137487 1.64538 131 132 124
0.668523 -0.108945 1.69209 138 92 122
0.269969 -0.0954559 1.49642 138 150 141
0.471775 -0.0490752 1.54645 166 172 168
0.493549 0.0008256 1.56749 142 146 144
0.380136 0.0530461 1.54401 90 106 116
0.265198 0.110835 1.53551 33 45 48
0.562274 0.54189 1.94441 92 101 115
0.344064 0.468383 1.68921 117 102 76
0.516197 0.587344 1.87422 124 137 141
0.382752 0.54627 1.71393 126 124 104
0.647518 -0.249806 1.82779 153 166 172
0.335185 -0.0575984 1.48259 112 110 111
0.359383 -0.0522481 1.47283 183 184 190
0.263789 0.110747 1.5401 51 66 71
0.536255 0.204541 1.52267 64 57 50
0.610414 0.204799 1.51909 164 171 170
0.524273 0.57275 1.88972 60 64 71
0.434062 -0.257277 1.61697 130 133 128
0.444824 -0.119472 1.03225 76 76 82
0.470513 -0.0387788 1.55304 72 82 86
0.537346 0.205068 1.52243 60 54 48
0.0441708 0.305169 1.68558 128 124 116
0.466573 0.449801 1.65939 138 132 108
0.261585 -0.255599 1.56723 84 90 101
0.363058 -0.236172 1.54055 98 87 76
0.321524 -0.150806 1.50402 110 110 92
0.473198 0.00989683 1.57313 104 122 132
0.211445 0.154346 1.56068 78 98 114
0.149424 0.352955 1.67612 131 131 124
0.31034 0.525576 1.74518 96 95 96
0.312962 -0.270035 1.55864 116 111 112
0.473796 -0.271504 1.60392 154 158 160
0.185483 -0.132772 1.49586 141 143 148
0.279607 0.176315 1.55105 86 104 102
0.360739 -0.250617 1.50076 101 98 90
0.43269 -0.214536 1.59615 24 32 44
0.0387855 -0.225302 1.71343 68 52 36
0.708714 -0.0854551 1.77485 152 115 114
0.458101 -0.0460543 1.5803 175 186 191
0.387832 0.0119478 1.57232 204 216 218
0.440653 0.0605038 1.55322 125 148 156
0.314447 0.0729118 1.54378 66 82 96
0.00124239 0.357432 1.7389 112 112 101
0.259339 0.477607 1.68024 146 126 91
0.306083 -0.424438 1.54375 78 48 80
0.490088 -0.268698 1.63254 174 176 176
0.63894 -0.27204 1.76152 240 246 251
0.432714 -0.242416 1.61306 78 86 124
0.637964 -0.215395 1.71042 92 100 87
0.579649 -0.163166 1.66947 56 38 32
0.364655 -0.0477754 1.48132 126 128 142
0.412279 -0.0233815 1.51856 42 50 57
0.565236 0.0031446 1.63311 60 70 80
0.683136 0.0247892 1.58183 92 99 104
0.64478 0.0293484 1.67998 92 104 112
0.513851 0.0326046 1.59542 66 88 96
0.571143 0.216362 1.48715 113 111 118
0.609171 -0.213199 1.64535 90 60 74
0.00787262 -0.207035 1.76777 44 32 14
0.577272 -0.133248 1.63796 112 108 105
0.371975 -0.115415 1.512 40 50 38
0.465884 0.00695918 1.57811 56 66 76
0.644597 0.0296498 1.65868 94 98 106
0.542411 0.20569 1.51379 43 35 30
0.615699 0.217473 1.51024 220 222 234
0.29846 -0.319632 1.58948 132 128 131
0.530352 -0.170654 1.63267 134 142 140
0.245152 -0.054612 1.59024 106 112 93
0.623089 -0.0137712 1.73212 84 94 103
0.365512 0.046044 1.5395 50 64 75
0.404516 0.0559847 1.53113 138 159 174
0.316977 0.194449 1.51515 84 90 99
0.36786 -0.457825 1.61291 130 89 118
0.391687 -0.268622 1.59954 157 166 161
0.614785 0.218488 1.51594 220 222 233
0.530629 0.449673 1.63529 56 63 66
0.641557 -0.277075 1.7817 210 216 222
0.600637 -0.242354 1.65106 189 186 186
0.488842 -0.231029 1.61834 201 202 209
0.656001 -0.147528 1.67388 184 196 192
0.669686 -0.108441 1.69254 168 114 148
-0.0263367 -0.0895589 1.74571 58 38 29
0.323469 0.185769 1.49901 136 150 161
0.59344 0.19902 1.50086 89 96 87
0.310635 -0.440598 1.56077 108 82 112
0.0711769 -0.254873 1.72857 83 68 52
0.413502 -0.216254 1.57537 72 80 94
0.479565 -0.181935 1.58742 188 199 208
0.662755 -0.138383 1.67485 184 192 188
0.575689 -0.00100233 1.656 76 88 96
0.627875 0.00819673 1.73567 61 78 84
0.388132 0.0248227 1.52861 52 62 72
0.476961 0.0656958 1.56347 73 92 97
0.653567 0.103417 1.51689 66 114 138
0.594568 0.200538 1.52124 90 102 104
0.645178 -0.280767 1.80441 208 208 212
0.381035 -0.236703 1.55341 133 130 124
0.027076 -0.218457 1.75655 88 72 57
0.00515958 -0.208695 1.77088 54 40 22
0.485374 -0.184835 1.58438 148 155 172
0.00311539 -0.189896 1.77801 92 72 59
0.326738 -0.125228 1.50017 152 162 156
0.557429 0.0233958 1.67684 48 60 66
0.372958 0.0548882 1.53482 85 106 112
0.522364 0.0700623 1.55675 57 72 68
0.405252 0.195413 1.60352 74 98 104
0.607548 0.201572 1.51219 148 158 155
0.566409 0.215181 1.48935 112 104 104
0.0700117 -0.259164 1.73498 88 72 55
0.260274 0.00174467 1.5472 101 114 122
0.545302 0.0880231 1.59783 89 107 110
0.325668 0.184675 1.50809 116 138 134
0.304159 0.190644 1.52003 34 40 38
0.369058 -0.397587 1.60883 66 30 50
0.534104 -0.292582 1.60657 58 32 42
0.423269 -0.24877 1.61295 198 206 216
0.47577 -0.170826 1.60063 143 149 154
0.504573 -0.157848 1.61028 88 90 86
0.600785 -0.123984 1.60743 74 56 64
0.176184 -0.0290955 1.55501 160 160 157
0.655399 -0.0240195 1.79233 146 133 131
0.630087 0.00942516 1.74608 83 95 112
0.410316 0.0244321 1.55154 86 104 104
0.145932 0.11504 1.58216 82 94 96
0.379827 0.179884 1.53465 114 130 138
0.390572 0.178198 1.51878 25 44 51
0.316274 0.192835 1.49917 48 48 46
0.544255 0.254513 1.59013 80 74 69
0.48857 0.282056 1.26193 140 130 122
0.47556 0.392727 1.60356 186 188 178
0.437119 0.594701 1.72716 110 134 172
0.375039 -0.479934 1.57355 116 75 89
0.503242 -0.268034 1.64663 74 50 42
0.593662 -0.274884 1.73416 118 85 86
0.400296 -0.181179 1.48952 244 248 250
0.466416 -0.188684 1.60836 62 84 118
0.456359 -0.18278 1.5891 191 200 211
0.575781 -0.183548 1.62879 64 38 54
0.670158 -0.193239 1.82187 63 65 45
0.651021 -0.12846 1.68664 100 48 80
0.121135 0.098891 1.58339 81 87 93
0.397277 0.097892 1.50238 127 148 158
0.128979 0.106304 1.58668 69 72 72
0.340208 0.163861 1.47192 88 92 100
0.389962 0.178046 1.5559 37 56 63
0.304756 0.198874 1.51277 52 55 49
0.351397 0.197973 1.50198 72 86 89
0.592211 0.203233 1.49956 110 112 107
0.605318 0.218856 1.49697 191 190 198
0.229309 0.410131 1.71831 123 112 100
-0.00743597 0.568947 1.73859 70 78 96
0.278341 0.662612 1.93931 67 77 100
0.544509 -0.36441 1.56582 84 62 80
0.474476 -0.231113 1.63658 72 73 88
0.461484 -0.206198 1.64057 126 158 198
0.45031 -0.194366 1.61859 37 48 72
0.573925 -0.147983 1.65626 85 80 71
0.652258 -0.0257081 1.79098 66 52 56
0.552234 0.0232544 1.64244 77 92 97
0.586711 0.0642448 1.59957 53 72 80
0.348215 0.186629 1.5099 64 76 82
0.304826 0.197869 1.51222 46 51 43
0.340161 0.206629 1.53672 114 115 100
0.44928 0.244234 1.72454 59 58 54
0.0224461 0.247036 1.69314 82 66 48
0.0135513 0.275423 1.68537 148 137 126
-0.210005 0.452223 1.93139 112 105 94
0.524239 0.563504 1.87118 51 56 60
0.461889 -0.184679 1.55618 150 166 192
0.469032 0.00197489 1.58234 96 102 106
0.256946 0.00205181 1.53101 43 46 50
0.313771 0.0476846 1.54262 90 100 112
0.547612 0.0996863 1.58426 66 98 112
0.143147 0.115468 1.59659 64 78 80
0.446477 0.21443 1.61333 54 62 62
0.510343 0.211047 1.55864 67 61 50
0.445105 0.243335 1.70516 111 106 92
0.590789 0.221277 1.52571 204 206 207
0.587613 0.249393 1.55217 120 124 120
-0.208682 0.448764 1.92049 115 108 100
0.504209 0.380993 1.49624 112 97 86
0.381737 -0.45662 1.5663 190 148 178
0.46852 -0.262308 1.62937 206 210 215
0.00254635 -0.202343 1.79485 62 43 28
0.322066 -0.150791 1.49035 128 127 112
0.699209 -0.100273 1.73315 146 111 116
0.188197 0.0101883 1.55399 46 56 56
0.363765 0.0439145 1.51867 74 92 104
0.128803 0.10527 1.5778 61 63 64
0.333694 0.18769 1.52881 132 148 152
0.345749 0.199037 1.50053 72 68 56
0.506956 0.232427 1.57631 42 38 28
0.469111 0.365935 1.69419 170 152 132
0.45377 0.376159 1.65207 88 76 52
-0.108624 0.522956 1.96084 58 54 51
0.519802 0.542964 1.79074 62 68 75
0.481831 -0.245488 1.64489 212 218 217
0.485859 -0.234643 1.65006 166 167 174
0.652579 -0.230113 1.7959 136 150 147
-0.000696179 -0.201632 1.80032 67 48 34
0.478778 -0.0661474 1.53456 142 145 142
0.631167 -0.0258605 1.74842 89 82 84
0.186809 0.0114656 1.56664 36 46 48
0.312238 0.0510436 1.53551 92 100 111
0.570024 0.193302 1.49185 143 140 138
0.503607 0.392604 1.51631 130 118 102
0.483066 0.534413 1.76056 42 44 48
0.415214 -0.22038 1.58579 113 120 132
0.499163 -0.157945 1.58558 101 108 108
-0.00424658 -0.102273 1.65812 112 96 84
-0.0054356 -0.0713416 1.81024 117 106 93
0.651966 0.107488 1.51599 72 121 142
0.145045 0.112359 1.5874 68 82 86
0.0392712 0.307857 1.66087 90 82 74
0.207114 -0.230338 1.58641 143 148 152
0.64398 -0.197181 1.71264 120 126 121
0.519787 -0.161564 1.60398 182 186 188
0.230035 -0.0347582 1.47006 170 181 184
0.551529 0.20359 1.56104 52 54 48
0.578711 0.199352 1.4865 188 195 201
0.583412 0.240788 1.52502 102 107 106
0.025379 0.34104 1.69617 134 122 116
0.474574 0.409856 1.64759 164 164 156
0.161609 0.492057 1.77838 42 38 38
0.514999 0.513074 1.74899 72 76 78
0.359149 -0.453693 1.57344 142 104 132
0.307802 -0.334293 1.43498 150 126 144
0.657976 -0.231416 1.81784 93 112 104
0.586834 -0.119002 1.62157 124 118 125
0.0128329 0.31741 1.68169 146 136 132
0.259115 -0.313034 1.34625 64 35 45
0.365506 -0.284331 1.59126 200 204 213
0.484653 -0.420194 1.51656 157 122 155
0.659256 -0.222514 1.81569 130 147 132
0.432569 -0.731947 1.8778 167 136 126
0.420898 -0.283892 1.60552 224 231 235
0.467852 -0.192039 1.6056 45 64 106
0.333578 -0.134082 1.34306 128 136 122
0.276391 -0.119772 1.51627 171 179 186
0.368288 -0.117463 1.52581 48 60 52
-0.0146742 -0.0788348 1.74519 80 67 61
0.539297 -0.200462 1.62242 174 170 165
0.554796 -0.0801311 1.53569 241 250 255
0.0503949 0.299875 1.67138 141 139 132
0.698873 -0.104399 1.7491 122 86 102
0.258709 0.0013184 1.51132 79 86 92
0.597273 0.0398075 1.58944 93 102 104
0.54584 0.24626 1.56905 80 78 64
0.485786 -0.22489 1.66367 55 60 78
0.471735 -0.202366 1.62235 16 40 69
0.698582 -0.104982 1.74896 116 82 96
0.274211 -0.0781217 1.51863 74 68 56
0.154437 -0.0218949 1.57343 47 48 40
0.0218708 -0.0209362 1.81446 180 176 160
0.258057 -0.243098 1.18236 102 82 93
0.266494 0.106004 1.54376 36 43 43
0.457578 -0.119574 1.5322 204 212 210
0.449885 -0.12706 1.52877 223 232 238
0.424394 -0.115446 1.505 146 140 124
0.522835 -0.184074 1.65345 186 190 193
0.474284 0.281021 1.8464 86 80 60
0.378578 -0.146585 1.49822 196 198 206
0.452034 -0.709931 1.85084 95 70 84
0.449365 -0.70298 1.8445 170 140 168
0.292264 -0.421508 1.55569 122 88 115
0.259749 -0.369211 1.55399 68 16 41
0.475709 -0.316611 1.63549 74 64 51
0.383247 -0.306356 1.60759 132 132 130
0.530857 -0.293485 1.59865 78 53 62
0.470148 -0.294055 1.61221 205 225 224
0.482214 -0.261077 1.63031 124 132 118
0.409715 -0.250792 1.60025 91 97 88
0.574567 -0.246381 1.61819 42 10 31
0.42115 -0.241998 1.61678 70 81 100
0.414077 -0.237312 1.60523 83 96 96
0.420843 -0.2366 1.60492 42 55 74
0.425312 -0.238497 1.61011 14 26 52
0.416614 -0.234339 1.60339 144 156 167
0.413669 -0.233389 1.60437 84 97 114
0.42052 -0.233832 1.60595 46 58 82
0.417176 -0.232256 1.61117 100 112 136
0.587834 -0.234324 1.62763 120 84 104
0.41113 -0.22708 1.60305 160 170 170
0.415632 -0.229401 1.61022 50 58 76
0.412094 -0.217127 1.59515 105 114 121
0.641806 -0.240259 1.7854 184 205 214
0.658296 -0.23123 1.81628 74 82 54
0.462595 -0.202193 1.62843 106 124 166
0.496746 -0.198162 1.61786 173 186 187
0.423311 -0.189554 1.58223 100 108 122
0.458054 -0.191454 1.61871 40 52 75
0.492486 -0.172631 1.61532 101 109 103
0.479119 -0.170701 1.59998 128 140 136
0.658065 -0.198434 1.82578 156 159 132
0.54281 -0.174231 1.66058 142 147 142
0.640912 -0.195774 1.8211 122 132 102
0.53275 -0.169056 1.63879 130 134 132
0.554698 -0.170426 1.65288 157 158 158
0.565272 -0.170934 1.66696 176 160 152
0.413205 -0.145866 1.49853 134 144 131
0.57135 -0.156177 1.66894 106 111 86
0.41206 -0.131141 1.51142 118 126 97
0.575135 -0.150545 1.67263 202 206 187
0.576108 -0.1455 1.67908 57 55 43
0.473121 -0.131313 1.54149 174 172 160
0.386682 -0.124433 1.52783 197 209 196
0.313061 -0.123371 1.51524 54 61 54
0.580507 -0.140109 1.67926 76 64 58
0.605137 -0.137826 1.66861 100 78 86
0.637864 -0.142416 1.74558 112 74 93
0.369982 -0.114228 1.5143 38 50 41
0.54341 -0.118088 1.53102 208 206 208
0.668128 -0.125017 1.71429 140 120 138
0.656323 -0.126504 1.70479 153 106 132
0.682355 -0.117657 1.70076 94 62 73
0.66082 -0.113281 1.68436 64 18 43
0.245435 -0.0408185 1.55016 176 188 174
0.382493 -0.022597 1.51125 177 186 180
0.388489 -0.02223 1.52536 44 53 48
0.384755 -0.0209521 1.51867 212 222 216
0.423122 -0.0194125 1.52872 74 82 72
0.582929 -0.0219329 1.67466 80 84 86
0.424773 -0.00994046 1.56942 102 114 106
0.629423 -0.0188594 1.79765 129 135 138
0.630625 0.00532502 1.75363 26 35 54
0.388797 0.0223442 1.54963 44 59 60
0.659872 0.103049 1.5166 56 106 130
0.403066 0.124499 1.55293 92 112 118
0.638086 0.200016 1.55442 56 95 111
0.0541133 0.315468 1.70261 210 214 214
0.43736 0.32083 1.69681 130 118 76
0.0026575 0.343993 1.69323 56 48 26
0.46698 0.453848 1.66506 116 110 86
0.320263 0.488388 1.68864 128 118 92
0.308436 0.523186 1.7412 86 84 70
0.525723 0.575515 1.89483 41 46 50
0.0070035 0.565418 1.7148 68 76 86
0.424967 0.59898 1.71529 84 112 152
0.430985 0.606491 1.74403 78 108 151
0.381249 0.61707 1.72306 44 66 101
0.145321 0.675932 1.71904 51 70 106
0.356323 -0.376037 1.61811 134 82 96
0.434936 -0.269471 1.60171 206 215 200
0.653946 -0.278686 1.74838 244 250 254
0.417004 -0.25163 1.61716 62 72 60
0.410382 -0.243966 1.6098 174 186 166
0.413708 -0.240391 1.60947 82 94 90
0.540633 -0.244743 1.62222 98 59 70
0.4145 -0.230465 1.61029 51 62 79
0.176291 -0.212347 1.57749 124 131 116
0.606942 -0.226051 1.69872 164 152 144
0.642237 -0.239819 1.79019 180 201 210
0.657454 -0.230897 1.81677 76 84 60
0.444599 -0.171762 1.56177 103 108 98
0.672652 -0.194122 1.82775 81 82 65
0.572905 -0.160605 1.66949 160 150 130
0.56345 -0.159091 1.66907 178 190 184
0.673856 -0.174665 1.81687 232 228 241
0.577087 -0.1503 1.65673 159 160 140
0.540938 -0.120668 1.52566 133 127 126
0.649249 -0.143805 1.74801 186 178 174
0.378191 -0.116035 1.51162 70 86 62
0.367706 -0.103169 1.50481 101 108 95
0.606883 -0.11518 1.67984 62 46 52
0.444891 -0.092245 1.5241 150 152 147
0.411125 -0.0549452 1.50451 231 234 240
0.318603 -0.0539647 1.49405 182 176 174
0.411397 -0.0273457 1.51668 134 142 143
0.579955 -0.0194894 1.66112 161 165 166
0.433056 -0.0138457 1.5511 160 166 156
0.0602326 -0.01519 1.6614 120 108 96
0.469185 -0.000369203 1.57566 88 90 86
0.637773 -0.00569737 1.80221 150 154 148
0.423558 0.00600455 1.56568 119 130 131
0.309557 0.0262916 1.54483 74 79 82
0.613481 0.184573 1.50656 20 72 106
0.613143 0.201788 1.51933 161 178 184
-0.208284 0.316462 1.96039 104 94 82
0.451008 0.296826 1.72587 176 168 119
0.438593 0.3193 1.69505 140 128 86
-0.00522696 0.360277 1.69937 104 99 84
0.392234 0.722573 1.75554 112 156 210
0.286754 -0.391886 1.55638 97 54 76
0.337698 -0.352864 1.6246 130 145 138
0.401963 -0.34846 1.62774 117 114 101
0.389083 -0.352285 1.65193 53 58 44
0.407558 -0.343068 1.64755 94 100 74
0.404376 -0.273327 1.61313 212 220 222
0.431136 -0.251986 1.60631 172 181 182
0.418716 -0.252456 1.61269 78 88 74
0.386827 -0.239434 1.56234 151 156 150
0.642233 -0.284199 1.79602 239 241 250
0.411332 -0.242521 1.60854 124 137 126
0.416342 -0.233562 1.60242 134 146 155
0.64569 -0.246533 1.78398 134 147 149
0.491632 -0.203784 1.62756 184 194 206
0.456782 -0.1836 1.59331 184 194 198
0.659359 -0.213274 1.81508 204 209 204
0.562783 -0.163128 1.65661 84 92 85
0.652207 -0.182795 1.80496 45 44 40
0.671881 -0.174238 1.83337 226 224 234
0.416826 -0.137856 1.52068 86 85 59
0.643103 -0.15443 1.76994 124 109 111
0.603677 -0.138725 1.67114 67 45 52
0.579223 -0.1275 1.64563 186 184 177
0.45284 -0.110181 1.53621 46 56 47
0.409561 -0.0530452 1.51547 226 230 237
0.621756 -0.0389297 1.77116 50 50 56
0.361739 -0.0262464 1.49782 132 139 132
0.588913 -0.0334533 1.68378 74 82 84
0.626484 -0.0210861 1.79319 128 140 136
0.575322 -0.0130554 1.67938 80 90 86
0.428975 -0.00286682 1.57905 110 120 119
0.630484 0.0141671 1.74434 76 90 106
0.431966 0.19723 1.56304 98 114 120
0.435183 0.203899 1.57287 84 94 94
0.543327 0.206198 1.51428 48 40 28
0.0096101 0.283063 1.70128 146 138 130
0.437321 0.584936 1.70134 94 112 144
0.144794 0.676372 1.71957 48 67 100
0.333463 -0.353879 1.63333 128 143 137
0.410312 -0.27388 1.61379 232 241 246
0.534262 -0.263557 1.61376 96 66 75
0.330353 -0.255897 1.60431 127 133 128
0.410206 -0.242677 1.60868 174 186 172
0.550848 -0.239892 1.62039 96 61 72
0.413982 -0.223512 1.60903 64 72 86
0.522666 -0.226948 1.64292 188 194 175
0.64513 -0.251692 1.81109 118 130 134
0.459513 -0.20014 1.63838 88 106 147
0.656719 -0.228493 1.80787 93 100 80
0.472624 -0.191148 1.61762 49 72 123
0.454293 -0.18546 1.60889 162 170 179
0.492093 -0.178045 1.61567 185 196 192
0.667834 -0.192112 1.81667 61 62 44
0.700845 -0.186195 1.82713 178 179 174
0.570097 -0.163191 1.67179 166 160 142
0.47135 -0.146144 1.54379 192 187 186
0.559385 -0.160227 1.65501 194 202 202
0.669314 -0.16429 1.75104 216 213 220
0.577278 -0.139245 1.65209 86 86 70
0.64771 -0.142241 1.74176 137 107 116
0.370668 -0.116027 1.50754 46 59 52
0.589762 -0.0493941 1.70438 148 150 157
0.0471525 -0.0343346 1.66016 102 91 76
0.619332 -0.0393687 1.76598 70 74 80
0.346473 -0.02524 1.49804 142 142 132
0.458622 -0.0277596 1.55386 162 171 166
0.62529 -0.0302163 1.78773 125 136 136
0.676275 -0.0276718 1.84587 80 62 72
0.635915 -0.0239946 1.79737 77 66 66
0.573478 -0.0137713 1.68817 83 94 89
0.309146 0.0274806 1.5487 72 77 77
0.37552 0.152608 1.53439 126 146 155
0.285338 0.184638 1.51657 58 68 62
0.536284 0.205203 1.52345 64 56 44
0.451299 0.268926 1.72157 112 106 76
0.0583346 0.325114 1.68804 177 183 177
0.453639 0.384017 1.67304 86 78 48
0.492208 0.419292 1.67607 191 192 174
0.491767 0.421469 1.6772 184 186 174
0.465196 0.455649 1.6671 122 115 96
0.523 0.578796 1.89932 61 65 70
0.487837 0.594393 1.83598 93 105 116
-0.00839657 0.57592 1.74302 76 83 93
0.408628 0.625475 1.73588 47 72 115
0.411625 0.635919 1.76852 20 43 79
0.2273 -0.346858 1.54204 148 96 128
0.239657 -0.305038 1.58865 148 134 138
0.423997 -0.260285 1.61531 70 81 68
0.59601 -0.278674 1.74237 118 90 74
0.36122 -0.235598 1.53395 93 78 57
0.642798 -0.274687 1.73933 234 236 244
0.265902 -0.19616 1.56314 44 32 20
0.462195 -0.200761 1.62855 82 102 146
0.459662 -0.187873 1.57929 32 42 66
0.486116 -0.179768 1.62857 186 197 202
0.660802 -0.202656 1.82209 195 196 188
0.536077 -0.176133 1.64521 210 213 218
0.530339 -0.16649 1.6224 144 148 146
0.340473 -0.133661 1.50195 28 15 2
0.391425 -0.123949 1.52693 198 210 196
0.464192 -0.0557102 1.54736 169 182 173
0.0251256 -0.0520978 1.68178 66 48 31
0.242915 -0.0414296 1.55578 174 186 173
0.61445 -0.0505283 1.74072 116 116 118
0.236738 0.143406 1.54974 78 88 85
0.410277 0.182543 1.56137 110 132 129
0.411795 0.19218 1.57709 26 33 26
0.448691 0.202359 1.57402 81 88 86
0.607875 0.216882 1.54082 210 216 216
0.0386916 0.298247 1.68782 90 88 74
0.0665034 0.50338 1.68819 118 122 105
0.140812 0.535834 1.7188 66 98 151
0.29799 -0.32029 1.61088 152 146 148
0.24129 -0.306563 1.58647 125 107 114
0.354855 -0.251596 1.55255 94 83 68
0.40054 -0.242634 1.56032 200 208 209
0.444803 -0.256711 1.62545 180 188 194
0.44733 -0.166719 1.55694 110 116 108
0.536176 -0.176841 1.64013 188 192 198
0.342411 -0.135333 1.48315 38 22 5
0.464785 -0.144104 1.53196 113 110 103
0.669673 -0.172951 1.8094 219 216 226
0.664387 -0.135337 1.74185 197 202 196
0.0408119 -0.0361428 1.67075 96 86 72
0.37793 -0.0264067 1.5132 156 165 160
0.452205 -0.0238869 1.53465 214 222 226
0.0581498 -0.0157004 1.65977 130 118 104
0.442609 0.0031873 1.59915 36 48 44
0.504086 0.0117146 1.57495 114 122 123
0.179497 0.0972748 1.56684 74 88 96
0.548604 0.190538 1.50519 44 43 28
0.449067 0.202298 1.57795 94 99 98
0.0141318 0.258108 1.7198 73 56 40
0.470015 0.366668 1.68852 181 167 136
0.452807 0.384998 1.66718 82 71 42
0.548516 0.553146 1.92474 80 84 82
0.490603 0.517333 1.77094 36 32 32
0.313108 0.522492 1.73076 96 96 86
0.524899 0.573482 1.88157 72 75 78
0.382501 0.544006 1.71325 124 118 90
0.358426 0.551811 1.73249 42 34 24
0.478271 0.609747 1.88241 78 90 102
0.442292 -0.33087 1.64154 56 52 34
0.469062 -0.294033 1.63292 190 210 212
0.188227 -0.252317 1.59569 92 99 106
0.588567 -0.277102 1.7479 112 79 70
0.430016 -0.251159 1.62941 94 107 118
0.615868 -0.251502 1.76524 152 160 144
0.496548 -0.212254 1.624 118 125 126
0.500651 -0.201364 1.648 57 64 58
0.637984 -0.196843 1.71373 74 79 45
0.533466 -0.178861 1.65296 192 196 201
0.49963 -0.158522 1.60525 119 122 114
0.650951 -0.169532 1.74968 166 164 154
0.424398 -0.115291 1.4949 53 52 30
0.439967 -0.105214 1.52554 82 85 83
0.0552783 -0.0163634 1.66428 134 122 106
0.473915 0.0130646 1.57495 116 135 143
0.577911 0.0225077 1.67534 98 115 122
0.676715 0.0199687 1.66216 140 148 142
0.30165 0.0571457 1.55764 72 86 84
0.287409 0.169169 1.52815 104 122 124
0.334546 0.204436 1.5558 83 97 98
0.579478 0.199911 1.52123 170 176 178
0.42921 0.374132 1.69553 108 103 63
0.179353 0.443711 1.67795 69 60 33
0.164553 0.491505 1.75761 26 28 25
0.485066 0.585564 1.86627 53 60 76
0.297401 -0.271018 1.60223 69 71 50
0.393359 -0.247067 1.58549 204 211 210
0.524232 -0.188983 1.6607 208 212 221
0.682035 -0.177623 1.82148 216 222 234
0.670327 -0.105003 1.69015 142 86 122
0.643225 -0.0273436 1.76927 46 32 38
0.156148 0.495854 1.77853 36 34 28
0.523933 0.593833 1.89551 98 108 118
0.506491 0.597112 1.88513 120 132 132
0.278028 0.616069 1.79315 58 68 89
0.362391 0.636918 1.7621 49 78 118
0.363467 -0.364092 1.63315 66 40 42
0.253199 -0.335843 1.57968 112 68 88
0.459139 -0.282818 1.63002 217 224 218
0.413887 -0.240667 1.61098 64 74 72
0.577207 -0.154656 1.66612 80 78 58
0.578674 -0.145632 1.67219 78 72 56
0.380185 -0.121377 1.52505 172 187 161
0.540913 -0.120026 1.52695 122 118 114
0.268364 -0.0474288 1.53949 46 42 28
0.413043 -0.273513 1.6056 225 236 241
0.478479 -0.263748 1.62452 144 150 133
0.581509 -0.153971 1.66594 80 71 56
0.35158 -0.131462 1.50434 101 98 82
0.294426 -0.12654 1.5131 84 93 74
0.262575 -0.0908502 1.51832 102 116 96
0.633221 -0.00859746 1.80038 100 102 100
0.630961 0.221421 1.5668 156 164 158
0.44378 0.314185 1.67842 138 125 84
0.244917 -0.34587 1.55338 112 64 90
0.412815 -0.274453 1.60445 218 229 235
0.284261 -0.15098 1.50299 152 142 134
0.578624 -0.136734 1.65489 60 58 49
0.540206 -0.121617 1.52814 144 137 132
0.544683 -0.248174 1.61547 108 68 78
0.385988 -0.0215172 1.51159 185 195 184
0.628563 0.207003 1.55035 78 108 122
0.567624 0.53156 1.97266 118 126 134
0.45689 -0.323323 1.61441 44 38 26
0.415582 -0.135907 1.52253 87 88 58
0.395459 0.102737 1.54073 118 142 146
0.378301 -0.243567 1.53661 136 133 118
0.648696 -0.237805 1.78073 198 218 232
0.480179 -0.196522 1.60575 58 68 110
0.620595 -0.212023 1.70937 136 118 105
0.45701 -0.029154 1.55015 174 184 186
0.423228 -0.317794 1.62071 148 146 144
0.252565 -0.282449 1.58946 185 187 197
0.431879 -0.261585 1.64433 145 151 143
0.334881 -0.138832 1.50287 62 54 28
0.493496 0.00126997 1.57055 148 146 143
0.345568 0.010726 1.49599 158 160 160
0.316305 0.126719 1.53095 87 100 104
0.240693 -0.37682 1.55653 114 65 94
0.294966 -0.373905 1.59536 144 88 114
0.286854 -0.367516 1.58823 146 86 109
0.489857 -0.247953 1.63553 53 56 48
0.500157 -0.197563 1.63446 72 80 75
0.454405 -0.183822 1.59627 178 186 188
0.670633 -0.202077 1.82337 200 201 190
0.456527 -0.153285 1.55243 99 101 95
0.575356 -0.159745 1.67394 120 116 96
0.677338 -0.119598 1.69836 130 104 124
0.365146 -0.0406975 1.47646 196 196 207
0.41002 -0.0260999 1.5121 70 80 82
0.40257 -0.013525 1.53214 166 177 179
0.578355 -0.0152417 1.66752 62 70 68
0.320463 0.158529 1.52693 61 75 80
0.0529417 0.262321 1.7089 150 154 152
0.0533217 0.295383 1.69784 106 112 108
0.490674 0.576673 1.77985 78 92 112
0.654505 -0.224262 1.81297 134 140 118
0.678243 -0.12527 1.72589 172 162 158
0.441722 -0.107668 1.52805 92 100 96
0.625436 -0.0336111 1.77308 88 80 84
0.639314 -0.0232472 1.80061 62 54 57
0.487251 0.174079 1.57098 15 21 20
0.344219 0.184168 1.5103 101 117 118
0.620588 0.204816 1.53075 98 131 156
0.599917 0.204345 1.50346 138 141 132
0.451748 0.269825 1.72234 96 92 66
0.557237 0.53368 1.95848 58 64 64
0.550313 0.551088 1.95764 104 110 107
0.551523 0.557437 1.92293 82 86 92
-0.190587 0.55996 1.9389 88 84 80
0.244518 -0.304123 1.5982 76 88 84
0.333557 -0.260595 1.59602 51 50 44
0.656188 -0.230059 1.8192 102 113 90
0.567392 -0.194502 1.65891 92 57 66
0.452092 -0.163264 1.5615 112 116 110
0.672351 -0.193847 1.81763 64 64 43
0.569908 -0.164415 1.67725 152 137 126
0.578894 -0.120761 1.65846 128 128 128
0.683919 -0.118277 1.70481 113 81 91
-0.210167 0.316945 1.96329 100 92 82
-0.0105209 0.362724 1.71193 94 86 76
0.343966 0.467356 1.69507 122 110 78
0.561858 0.555422 1.96592 94 106 112
0.552662 0.554678 1.91773 80 84 90
0.49012 0.582805 1.86654 44 52 63
0.145293 0.627066 1.75256 55 88 126
0.371265 0.631356 1.74739 57 85 127
0.576778 -0.241522 1.75354 84 57 64
0.490653 -0.203236 1.62401 98 114 138
0.628238 -0.0105988 1.79602 60 70 74
0.397509 0.0163632 1.56541 172 187 180
0.625163 0.212315 1.55977 145 169 176
-0.00733753 0.351928 1.71477 68 60 46
0.469066 0.365857 1.69041 158 148 111
0.552845 0.535426 1.96409 56 58 64
0.565802 0.541984 1.97159 129 137 142
0.537956 0.542841 1.94187 84 90 87
0.142392 0.630719 1.75973 62 92 132
0.426706 -0.192577 1.54589 101 110 128
0.666309 -0.137758 1.73262 196 202 202
0.62763 -0.00916208 1.76997 56 68 72
0.631728 0.00633465 1.72697 70 82 96
0.510251 0.0176578 1.57733 144 155 154
0.541598 0.205664 1.51436 56 48 36
0.552949 0.553897 1.964 120 127 127
0.523845 0.596723 1.89126 84 98 109
0.458181 -0.709524 1.85444 102 83 88
0.403276 -0.697697 1.84885 58 30 28
0.686995 -0.180573 1.80986 214 215 220
0.00383778 0.28631 1.71291 150 145 142
0.036498 0.314 1.68044 85 76 64
0.468829 0.45178 1.65863 122 116 92
0.564197 0.54861 1.95769 92 104 110
0.433894 0.677506 1.82413 66 103 150
0.336269 -0.253829 1.59492 41 36 22
0.682636 -0.17187 1.75488 210 215 224
0.592209 -0.0944539 1.64067 199 200 198
0.559059 -0.0837255 1.56853 246 252 254
0.37433 -0.0243482 1.52374 138 146 143
0.419048 -0.00828597 1.55281 199 213 203
0.585289 0.0510149 1.58008 46 53 60
0.40014 0.062233 1.55357 142 162 170
0.363811 0.112951 1.53496 140 162 179
0.326645 0.156372 1.52657 118 143 152
0.483277 0.409109 1.67644 172 168 146
0.348832 0.460544 1.68232 108 96 66
0.368515 0.631804 1.75122 50 78 120
0.0587496 -0.304561 1.74839 45 34 22
0.645981 -0.20871 1.75581 74 80 48
0.198284 0.0376946 1.55172 100 114 123
0.375805 0.146841 1.54256 130 153 164
0.504122 -0.17249 1.62191 118 122 130
0.626842 -0.104616 1.69062 93 72 86
0.588364 -0.0274312 1.65748 57 66 76
0.320044 0.193908 1.50671 134 150 156
0.618514 0.204503 1.52669 88 120 138
0.440238 -0.250679 1.45131 204 211 216
0.320651 0.193195 1.50676 136 152 161
0.0665271 0.308319 1.67189 132 141 137
0.27826 -0.397034 1.54379 117 76 100
0.571393 -0.158184 1.6779 98 106 85
0.606859 0.196052 1.50767 119 150 160
0.592893 0.204296 1.51098 83 88 78
0.223066 -0.347904 1.55275 143 92 126
0.275572 -0.199401 1.55322 63 54 44
0.500166 -0.159609 1.60977 89 96 92
0.587456 -0.0305813 1.69455 67 76 84
0.635739 -0.0102279 1.7629 123 127 129
0.309911 0.196832 1.53049 78 91 90
0.542059 0.343139 1.25798 136 126 100
0.38412 -0.240616 1.56288 144 148 143
0.478812 -0.050753 1.51695 127 136 121
0.668381 -0.0268091 1.70583 88 72 81
0.329853 0.187064 1.52009 118 142 144
0.440081 -0.24852 1.60067 44 53 72
0.509426 -0.187151 1.63086 159 166 159
0.491439 0.410496 1.67581 178 176 148
0.144235 -0.0147681 1.59319 40 38 35
0.662028 0.177025 1.50537 180 186 185
0.352676 0.202647 1.52017 142 176 190
0.487533 0.287496 1.77123 153 150 138
0.228294 -0.298508 1.60183 107 84 86
0.579167 -0.139446 1.6766 32 24 19
0.544737 0.0778178 1.57435 86 104 103
0.328642 0.151552 1.52284 116 144 152
0.415389 -0.712055 1.83716 91 55 54
0.408265 -0.310143 1.61395 108 102 94
0.598372 -0.23378 1.64525 176 162 170
0.611747 -0.20787 1.64686 152 110 128
0.627166 -0.184534 1.66621 216 208 204
0.572135 -0.167118 1.65644 111 86 82
0.615692 -0.11944 1.67849 84 62 77
0.461994 -0.0472831 1.53006 215 226 238
0.572575 -0.00881445 1.6709 64 76 76
0.63926 -3.32018e-06 1.77923 151 154 150
0.522859 0.025942 1.59422 131 155 165
0.545317 0.0928837 1.58645 80 108 115
0.403827 0.128778 1.55145 107 130 139
0.393454 0.141998 1.55033 77 102 112
0.315039 0.194255 1.50525 48 57 55
0.62382 0.206531 1.51231 166 174 172
0.63195 0.207789 1.52774 138 152 142
0.428685 0.241065 1.72727 72 60 41
0.49805 0.540124 1.79622 103 112 121
0.445681 0.589476 1.71556 70 98 138
0.374355 -0.477865 1.5667 110 82 84
0.319621 -0.26937 1.5946 184 186 183
0.456953 -0.152203 1.5492 104 108 100
0.460973 -0.146926 1.54408 87 90 80
0.580395 -0.130843 1.64273 93 90 86
0.590404 -0.0280683 1.6422 70 80 86
0.52957 0.0189608 1.57412 120 136 140
0.54474 0.0933668 1.59401 81 109 116
0.623423 0.206454 1.51706 163 179 182
0.63014 0.210736 1.54108 145 160 150
0.616708 0.212535 1.49381 212 218 230
0.0111806 0.556555 1.69787 64 72 86
0.433144 0.591466 1.72114 57 74 107
0.522582 -0.175927 1.6355 200 208 210
0.635733 -0.166247 1.6554 92 79 82
0.54489 0.0915507 1.58855 80 102 103
0.56381 0.136716 1.48797 42 85 106
0.31807 0.192956 1.51602 135 160 175
0.636894 0.194055 1.50902 110 141 160
0.312421 0.194553 1.51279 46 54 48
0.341418 0.194456 1.51084 43 50 48
0.332761 0.175618 1.41849 34 44 40
0.335553 0.202358 1.53819 22 28 23
0.624033 0.207568 1.51907 164 174 174
0.418949 0.621487 1.7784 66 95 138
0.555403 -0.232337 1.62855 61 22 39
0.13611 0.117084 1.59603 64 68 71
0.32218 0.189911 1.5071 135 160 174
0.30217 0.197348 1.52297 41 52 48
0.630299 0.208472 1.52821 144 159 148
0.586137 0.211521 1.497 202 214 210
0.499866 0.528285 1.7681 92 101 110
0.634742 -0.158805 1.64586 162 124 144
0.464158 -0.107864 1.49831 64 76 67
0.544494 0.0878996 1.57868 84 104 104
0.612755 0.19997 1.50775 130 152 160
0.578922 0.0201867 1.66199 100 116 124
0.54698 0.0880671 1.57288 84 108 111
0.27884 0.177477 1.55431 100 122 130
0.320548 0.188527 1.51236 134 159 166
0.306645 0.193815 1.51131 32 41 37
0.335114 0.200026 1.53702 33 42 41
0.29319 -0.428743 1.55127 112 82 108
0.47635 -0.247484 1.63423 190 194 196
0.637403 -0.21385 1.74412 146 154 140
0.708043 -0.0622343 1.84494 127 94 100
0.414359 -0.0212371 1.53299 42 52 52
0.343337 0.0354777 1.52763 49 69 80
0.544687 0.0810207 1.56482 83 104 102
0.316949 0.510635 1.74317 20 14 9
0.486997 0.524535 1.76971 32 35 30
0.388324 0.513859 1.68982 54 44 20
0.18557 -0.216414 1.6067 68 72 60
0.204456 0.066417 1.54757 98 118 129
0.385829 0.216467 1.67962 68 76 70
0.306873 -0.43736 1.54769 116 86 116
0.632799 -0.194373 1.73674 55 58 42
0.503006 -0.159431 1.61189 95 98 94
0.587975 -0.134239 1.6853 57 40 46
0.579989 -0.119357 1.65134 142 136 138
0.617992 -0.0503494 1.73028 86 78 90
0.616942 -0.0454135 1.7778 107 106 118
0.627545 -0.00780247 1.76718 54 61 66
0.635227 -0.00788785 1.77711 158 156 157
0.397586 0.00991099 1.54003 218 232 238
0.395517 0.135615 1.56406 140 166 176
0.30765 0.198114 1.50534 41 48 43
0.346084 0.205875 1.51243 66 72 67
0.352882 0.211677 1.53223 149 180 194
0.45105 0.270764 1.72116 94 86 62
0.484233 0.414009 1.66355 156 158 156
0.498771 0.486846 1.69677 120 114 94
0.55019 0.565411 1.95103 82 89 95
0.523877 0.599733 1.90131 70 82 96
0.435518 0.590718 1.71646 114 138 178
0.4396 0.593646 1.71093 84 118 164
0.290418 -0.43079 1.53994 90 54 76
0.273911 -0.420879 1.53653 97 58 78
0.666392 -0.274069 1.76989 174 181 168
0.5489 -0.243557 1.63849 80 44 58
0.626664 -0.201892 1.77441 233 235 232
0.680102 -0.202265 1.81048 138 139 124
0.641231 -0.197336 1.83161 138 148 116
0.335595 -0.142259 1.51065 40 24 12
0.621564 -0.0382734 1.78347 47 46 56
0.390141 0.0868435 1.57473 71 90 99
0.349035 0.199768 1.49972 64 70 66
0.455974 0.263661 1.74038 42 34 17
0.520047 0.451198 1.73596 195 188 169
0.516573 0.59734 1.89969 134 144 156
0.373487 -0.475515 1.63072 137 100 122
0.269895 -0.413843 1.54332 126 88 117
0.278043 -0.305851 1.62147 128 136 130
0.648956 -0.277463 1.74007 240 242 246
0.551062 -0.239925 1.61829 113 76 90
0.410708 -0.125212 1.53791 72 72 56
0.128563 0.105159 1.58543 58 68 66
0.383632 -0.464011 1.5748 136 92 118
0.400741 -0.32637 1.64291 114 110 110
0.555161 -0.345558 1.7542 150 124 142
0.334391 -0.142251 1.519 46 32 19
0.296004 0.0190659 1.55017 74 78 74
-0.0644847 0.0384553 2.01949 138 130 112
0.131531 0.103768 1.58305 58 70 69
0.142536 0.104358 1.57267 34 46 48
0.143925 0.114329 1.58785 67 85 90
0.339605 0.213987 1.54669 85 91 74
0.609292 0.230266 1.50569 162 166 178
0.455712 0.264553 1.74737 34 26 10
0.45491 0.283036 1.75629 129 121 90
0.5653 0.411119 1.59561 71 74 71
0.552955 0.54894 1.9502 114 119 118
0.548773 0.569365 1.96665 80 86 89
0.521876 0.609596 1.92943 87 98 112
0.293714 -0.428524 1.55124 114 83 110
0.650978 -0.279966 1.75677 232 233 236
0.410723 -0.216317 1.58325 163 172 178
0.659418 -0.214592 1.81311 206 212 210
0.523202 -0.17767 1.64322 188 196 206
0.669077 -0.194692 1.82434 70 70 52
0.325565 -0.1492 1.51075 86 80 58
0.618248 -0.0401758 1.76975 92 96 106
0.625207 -0.031047 1.78981 126 132 138
0.106137 0.0834461 1.56506 91 90 80
0.131547 0.110164 1.60311 26 38 38
0.403919 0.19411 1.60928 90 112 118
0.356798 0.204287 1.51512 164 198 216
0.606588 0.217645 1.4918 186 186 192
0.450254 0.270915 1.73165 104 96 74
0.611785 0.251918 1.54659 190 197 203
0.520281 0.450868 1.74081 182 174 154
0.55746 0.529561 1.9515 58 64 63
0.513967 0.599297 1.90342 128 140 149
0.479983 -0.246049 1.63043 210 210 221
0.488735 -0.248956 1.6461 64 68 56
0.142473 0.11316 1.59276 70 86 92
0.416077 0.248753 1.67367 158 142 108
0.614026 0.250335 1.55388 190 197 206
0.454536 0.284836 1.71812 156 152 106
0.385218 0.415506 1.66237 126 116 94
0.518487 0.448787 1.72968 172 162 138
0.555133 0.530623 1.94979 56 60 63
0.512698 0.593288 1.88347 126 137 144
0.490344 -0.183453 1.57734 118 128 152
0.622866 -0.201922 1.75446 170 160 174
0.638873 -0.0289854 1.7896 50 37 38
0.141386 0.11602 1.5902 63 74 78
0.54329 0.241422 1.56594 74 66 58
0.570428 0.250314 1.54118 172 182 186
0.447855 0.390586 1.68958 82 72 48
0.555681 0.533638 1.96205 52 59 58
0.491979 -0.194309 1.63072 38 47 68
-0.0263887 -0.0966559 1.74449 68 48 39
0.233968 -0.0407778 1.53178 186 196 198
0.695793 -0.0466152 1.81887 94 70 85
0.175852 -0.0277178 1.48612 68 62 56
0.304841 0.186138 1.50894 37 43 40
0.379486 0.19852 1.53225 64 76 72
0.585979 0.255894 1.59055 95 96 73
0.044801 0.300025 1.65128 74 70 56
0.0286843 0.33387 1.68241 118 118 111
0.567963 0.441676 1.92732 108 111 114
0.519216 0.44328 1.71856 162 150 122
0.313349 -0.439367 1.55663 138 112 138
0.439027 -0.43428 1.54713 102 65 83
0.564127 -0.229512 1.63353 112 73 92
0.550097 -0.211268 1.63243 60 20 26
0.325668 -0.0329371 1.51441 69 60 48
0.34991 -0.441487 1.57304 108 78 104
0.345632 -0.365754 1.63286 80 26 35
0.425876 -0.284812 1.62267 228 238 243
0.389431 -0.273435 1.61449 189 194 196
0.140969 0.354922 2.74154 124 135 137
0.438881 -0.294638 1.61364 218 226 235
0.354321 0.720843 3.05095 168 162 142
0.382531 0.415477 1.67698 92 75 54
0.563823 -0.0694618 1.55452 242 248 254
0.266644 0.0104985 1.54399 112 126 132
0.451371 -0.711538 1.85271 81 53 62
0.449319 -0.701861 1.85049 202 178 206
0.461248 -0.706185 1.87065 98 78 82
0.333493 -0.354214 1.63427 178 194 182
0.555027 -0.308468 1.58547 160 125 157
0.56204 -0.283676 1.59995 150 111 142
0.567974 -0.279726 1.59576 142 108 137
0.691187 -0.302177 1.76755 240 245 250
0.414193 -0.251469 1.62378 52 64 56
0.417441 -0.241887 1.61131 140 150 156
0.423457 -0.240109 1.6084 113 122 143
0.41212 -0.228856 1.60717 160 174 178
0.406475 -0.218793 1.61225 102 115 124
0.650508 -0.249041 1.79751 107 122 116
0.274484 -0.195728 1.55888 42 28 14
0.637127 -0.235334 1.79487 109 121 116
0.642488 -0.237706 1.80631 208 230 240
0.639874 -0.22617 1.80949 217 226 213
0.474415 -0.188314 1.60725 40 60 86
0.657632 -0.219466 1.7952 110 121 100
0.64365 -0.212597 1.80512 76 80 56
0.482837 -0.170573 1.59102 100 112 99
0.551474 -0.176275 1.65595 56 62 51
0.621286 -0.189508 1.8077 56 62 68
0.565622 -0.165186 1.64799 56 66 54
0.663461 -0.190514 1.82219 28 30 16
0.408521 -0.143521 1.5107 56 69 45
0.317236 -0.141765 1.5163 164 170 156
0.61712 -0.178102 1.78298 184 178 170
0.312891 -0.136025 1.51403 181 196 192
0.464284 -0.133937 1.53974 180 183 168
0.57825 -0.151324 1.6765 96 90 72
0.31211 -0.123496 1.51826 77 86 76
0.396012 -0.124499 1.53036 204 214 200
0.575612 -0.144289 1.685 46 43 30
0.629977 -0.156656 1.78412 72 63 61
0.369872 -0.119039 1.51364 34 42 26
0.659237 -0.130416 1.72198 107 88 104
0.588761 -0.106207 1.61065 176 180 174
0.675565 -0.119066 1.70774 140 110 128
0.686316 -0.11237 1.71189 90 45 63
0.413951 -0.0557929 1.52404 234 244 250
0.619495 -0.0362354 1.78444 46 48 53
0.639063 -0.0119723 1.81064 144 141 137
0.636467 -0.00686984 1.80687 142 144 136
0.641904 0.00685895 1.78571 167 164 159
0.309928 0.0253116 1.545 66 68 68
0.649005 0.181487 1.56135 154 184 198
0.30894 0.190038 1.52164 88 96 95
0.588161 0.18799 1.4995 104 134 140
0.614597 0.200756 1.51314 152 167 170
0.59395 0.199251 1.4941 158 167 154
0.631997 0.219583 1.61917 128 142 123
0.632348 0.223988 1.61545 159 173 166
0.621268 0.231789 1.61097 122 132 128
0.588387 0.22715 1.51476 124 125 110
0.451402 0.298869 1.71824 177 165 116
0.438062 0.320396 1.69491 129 116 76
0.385092 0.416619 1.67571 112 100 72
0.519595 0.44882 1.7291 212 200 172
0.132765 0.52509 1.69205 40 63 103
0.508987 0.61754 1.94276 80 94 98
0.446122 0.593482 1.71981 78 112 155
0.443727 -0.708023 1.86895 196 167 197
0.464678 -0.698216 1.87664 129 88 96
0.280676 -0.395118 1.53827 114 78 98
0.287535 -0.392424 1.55611 60 21 42
0.52959 -0.375289 1.56802 165 122 139
0.307397 -0.35571 1.61231 110 78 87
0.555244 -0.309151 1.58437 146 111 138
0.560043 -0.30738 1.59701 148 114 138
0.473481 -0.275056 1.6321 84 92 76
0.34982 -0.26177 1.58772 88 79 70
0.566262 -0.258203 1.60402 75 46 64
0.602897 -0.232734 1.74491 116 115 86
0.646354 -0.242075 1.79339 175 202 212
0.533495 -0.215405 1.65397 126 126 100
0.636876 -0.236438 1.79653 105 118 114
0.323488 -0.175056 1.48866 134 130 126
0.456868 -0.183847 1.58153 146 153 157
0.634198 -0.215252 1.78758 102 106 87
0.642459 -0.213201 1.80622 118 122 100
0.630262 -0.1922 1.76821 84 94 72
0.633542 -0.19707 1.80753 68 78 41
0.567012 -0.170655 1.65965 143 136 124
0.631425 -0.183743 1.73707 95 103 100
0.664194 -0.190218 1.8161 32 34 19
0.318109 -0.142412 1.51993 134 133 110
0.292761 -0.12659 1.51688 60 68 54
0.369321 -0.124828 1.50738 122 131 116
0.356059 -0.12386 1.52181 40 48 40
0.6354 -0.157652 1.76058 78 71 68
0.445291 -0.109367 1.53711 135 142 134
0.6162 -0.120933 1.67707 78 64 73
0.42174 -0.0565415 1.50975 234 242 248
0.545289 -0.0700608 1.63461 245 253 255
0.362231 -0.0495562 1.48169 138 137 144
0.593033 -0.048929 1.68679 101 114 118
0.416876 -0.0224279 1.50338 84 92 88
0.626792 -0.0329085 1.78029 106 110 112
0.629985 -0.0168732 1.80506 112 122 116
0.636709 -0.00919711 1.77825 98 102 96
0.627126 0.00824082 1.73526 68 83 90
0.522016 0.0196354 1.58987 163 184 174
0.52783 0.022397 1.59075 95 116 112
0.650614 0.178695 1.55528 90 128 146
0.372891 0.207369 1.55567 56 69 60
0.590274 0.20124 1.50552 182 192 180
0.625778 0.213997 1.58082 130 166 178
0.634617 0.218418 1.60227 134 147 125
0.468092 0.366663 1.69239 149 138 110
0.492583 0.510693 1.78583 52 51 45
0.547873 0.56235 1.94709 76 84 86
0.519818 0.604062 1.90418 92 105 110
0.474389 0.607532 1.86777 26 38 42
0.446072 0.666322 1.79587 70 104 147
0.27776 -0.396684 1.54408 114 78 98
0.34543 -0.349052 1.64137 34 47 26
0.408076 -0.313083 1.61314 94 90 83
0.554957 -0.310052 1.58462 130 96 120
0.691233 -0.303497 1.76727 228 234 241
0.426463 -0.246354 1.61456 59 68 78
0.490738 -0.244813 1.63322 49 52 41
0.42304 -0.24055 1.61208 78 87 106
0.413108 -0.231172 1.61687 32 44 52
0.464595 -0.200079 1.62322 78 92 136
0.64145 -0.213065 1.80653 56 60 28
0.631393 -0.203448 1.79696 136 138 106
0.49362 -0.172627 1.61032 96 106 96
0.520691 -0.17704 1.63653 173 182 181
0.664755 -0.199247 1.80075 174 179 156
0.455914 -0.15131 1.55038 78 82 74
0.674284 -0.173984 1.81033 221 224 236
0.333451 -0.128004 1.52246 130 130 114
0.574336 -0.144768 1.68976 84 84 68
0.419987 -0.122398 1.5236 68 67 42
0.372569 -0.117078 1.50687 48 57 42
0.60432 -0.138603 1.6736 68 47 54
0.581088 -0.12133 1.67264 106 107 100
0.162473 -0.0243155 1.56154 45 41 33
0.414414 -0.0146576 1.53236 187 200 188
0.681102 -0.0280547 1.83531 79 66 74
0.638548 -0.0118751 1.81169 122 120 116
0.460655 0.0652734 1.57993 108 130 135
0.356737 0.197275 1.5058 148 170 181
0.631548 0.220659 1.60739 136 149 127
0.565596 0.212611 1.50378 122 116 116
0.589098 0.238293 1.53499 72 70 52
0.597078 0.239709 1.54139 116 116 108
0.378506 0.550766 1.72592 114 112 82
0.397407 -0.355006 1.65111 106 103 86
0.327768 -0.260186 1.59283 172 176 174
0.362152 -0.233921 1.50925 36 30 30
0.49435 -0.177001 1.61329 178 188 189
0.625869 -0.205994 1.81375 152 154 128
0.641453 -0.196015 1.82194 130 136 100
0.569616 -0.161354 1.6737 142 138 118
0.421575 -0.0552092 1.51413 234 244 250
0.362199 -0.0416941 1.4859 185 186 186
0.432748 -0.0395088 1.50798 238 246 255
0.38957 -0.036627 1.50757 166 171 176
0.347941 -0.0235835 1.50946 88 92 83
0.585721 -0.0337385 1.69009 48 58 55
0.621443 -0.0393577 1.76807 56 56 60
0.434856 -0.017043 1.54805 106 112 110
0.642963 0.00621464 1.77689 154 152 146
0.304519 0.0196417 1.52515 66 68 65
0.599165 0.127954 1.48452 40 94 134
0.346982 0.193072 1.50527 42 47 42
0.265543 0.207394 1.5877 96 94 83
0.541818 0.205978 1.51408 48 40 24
0.63847 0.213968 1.57207 144 157 134
0.451648 0.270707 1.72036 90 86 58
0.468554 0.366564 1.69006 150 140 110
0.558684 0.522787 1.93132 46 54 51
0.154119 0.52594 1.68308 63 94 139
0.378532 0.551119 1.72837 123 120 90
0.474001 0.593065 1.8582 85 98 108
0.439252 0.672528 1.81469 68 102 146
0.385203 -0.355289 1.65565 96 104 87
0.335789 -0.331911 1.61613 184 186 185
0.694147 -0.304674 1.76996 239 245 250
0.647041 -0.240266 1.78565 168 195 207
0.45638 -0.193529 1.61857 34 48 73
0.491004 -0.192154 1.6309 42 58 71
0.660795 -0.212481 1.81046 194 202 198
0.524812 -0.17698 1.62875 177 186 186
0.662945 -0.199612 1.80438 181 188 174
0.319624 -0.151329 1.51957 84 80 59
0.615506 -0.182121 1.72369 134 106 111
0.626695 -0.193788 1.81023 36 45 43
0.497954 -0.160701 1.61045 77 84 74
0.560379 -0.1697 1.67109 73 84 72
0.473648 -0.144894 1.53721 174 174 171
0.360569 -0.130434 1.51857 157 160 156
0.635163 -0.168665 1.79981 152 150 130
0.355715 -0.127009 1.50652 72 77 63
0.640556 -0.1555 1.785 89 85 76
0.657034 -0.139335 1.75539 178 178 173
0.564815 -0.0844738 1.54718 236 244 247
0.62825 0.00820303 1.73373 60 74 82
0.517993 0.0213219 1.60045 188 208 202
0.678407 0.0263219 1.65197 114 122 117
0.5984 0.129674 1.49263 30 89 132
0.663674 0.159518 1.55319 152 172 180
0.589228 0.187196 1.48688 82 114 126
0.303077 0.194823 1.51762 29 36 25
0.596647 0.191419 1.50864 36 76 96
0.567258 0.204548 1.48616 151 147 149
0.615236 0.217191 1.50077 210 220 221
0.439227 0.318891 1.69104 159 146 106
0.548665 0.496346 2.1417 133 143 136
0.553546 0.54605 1.94038 110 114 108
0.497806 0.506631 1.76308 48 42 46
0.547842 0.55642 1.93656 68 74 78
0.520423 0.581485 1.91111 56 58 63
0.694979 -0.305376 1.76387 229 235 242
0.42595 -0.260701 1.61433 82 90 78
0.360812 -0.239846 1.55188 90 78 64
