ply
format ascii 1.0
element vertex 1235
property float x
property float y
property float z
property uchar red
property uchar green
property uchar blue
end_header
0.106651 0.0414181 0.366593 105 79 68
0.0358846 0.0603737 0.269283 94 90 68
0.0943584 0.0310306 0.250444 58 38 24
0.0336569 0.061517 0.27149 118 111 90
0.0720904 0.135775 0.424426 98 74 74
-0.00517356 0.110042 0.404743 118 86 66
0.0295037 0.0843623 0.360729 24 7 4
0.0839506 -0.03071 0.29123 95 98 91
0.0804105 -0.00432665 0.423708 32 16 2
0.0870153 0.0424027 0.406409 51 26 12
0.0926063 0.0603813 0.466071 32 11 4
-0.00791295 0.0811942 0.383686 139 118 96
-0.0107338 0.0870623 0.402828 118 78 64
0.169922 -0.0951967 0.345142 110 115 69
0.00654318 -0.0230038 0.367524 86 85 58
0.132456 -0.0396443 0.409918 78 80 37
0.0288291 0.0189862 0.299966 54 56 34
-0.00949762 0.0811026 0.385501 148 130 106
0.0251446 -0.032101 0.35412 154 155 105
0.156561 0.0183332 0.217176 92 80 60
0.0299319 0.0411578 0.370343 55 36 24
0.083609 0.125155 0.444162 74 38 34
0.167308 -0.0920659 0.348952 40 42 17
0.09654 0.0345371 0.343998 27 26 12
0.110447 0.038574 0.380809 58 28 20
0.0829581 0.125626 0.444415 84 51 46
0.00412 -0.0238862 0.370187 89 88 61
-0.0093809 0.102985 0.407851 131 104 86
-0.00606868 0.110453 0.405633 140 115 94
0.00482683 -0.067102 0.28175 88 90 44
-0.00524881 0.118121 0.415809 136 114 94
0.0503402 0.121887 0.389498 104 64 58
-0.0172928 0.0966001 0.407693 110 82 60
-0.00449918 0.126231 0.420006 120 90 74
0.00967318 -0.0651133 0.27766 68 76 28
0.0441169 0.00696967 0.388723 88 91 87
-0.0234826 -0.119513 0.415121 106 112 70
-0.0131291 -0.0967879 0.398231 95 102 70
0.0897563 -0.0338129 0.278833 80 84 78
0.0857176 -0.0301194 0.366363 86 88 74
0.0735146 -0.0193496 0.317258 86 96 84
0.0228871 0.0520125 0.337465 108 58 28
0.083006 0.0454377 0.344522 86 66 45
0.0327879 0.0554545 0.336487 89 37 16
0.0782397 0.0621839 0.35683 34 8 4
0.110008 0.0591282 0.314069 78 64 46
0.102714 0.0763816 0.420265 30 12 10
-0.0334579 -0.131524 0.419695 122 125 79
-0.0200187 -0.106613 0.402326 90 96 64
-0.0535321 -0.0794777 0.346995 82 82 37
0.00934671 -0.00957907 0.345286 115 113 65
0.0264997 -0.0034785 0.32394 40 44 13
0.0335611 0.0551754 0.335063 134 83 56
0.174582 0.0302764 0.115353 87 70 45
-0.0285979 -0.060982 0.356147 116 118 72
0.0841717 -0.0309605 0.291046 86 92 85
0.0263793 -0.00344998 0.323702 36 40 12
0.0251512 -0.00146765 0.323897 93 94 63
0.0328054 0.0553584 0.336216 129 78 52
-0.0207607 -0.107149 0.403215 88 94 62
-0.0462606 -0.0739278 0.35078 97 98 52
0.0291147 -0.0291602 0.327461 155 152 104
0.00187658 -0.0326301 0.37158 76 80 48
0.0496357 -0.0104439 0.332423 106 104 72
0.0425271 0.04676 0.268745 95 98 72
0.039835 0.0484865 0.27155 88 90 62
0.023594 0.0565556 0.338801 60 22 14
0.0764073 0.0865998 0.37227 122 96 90
0.00359683 -0.0679029 0.283089 80 79 32
-0.052778 -0.0790619 0.34608 98 97 52
-0.0460466 -0.073652 0.350202 75 78 36
-0.0231515 -0.0553723 0.363094 86 87 48
-0.0117772 -0.0449646 0.373881 84 86 47
0.123258 -0.00381306 0.399244 139 104 89
0.110752 0.0381876 0.380644 75 42 32
0.0768453 0.0778335 0.366308 92 74 70
0.0375489 0.0915218 0.244232 74 70 36
0.0857762 0.127604 0.449834 84 56 48
-0.0133569 -0.045249 0.375369 78 82 43
-0.000284096 -0.040449 0.364077 154 152 105
0.0494562 -0.0120354 0.330689 115 110 70
0.0407625 0.00399803 0.321947 47 56 29
-0.013494 0.0955886 0.402105 115 92 68
0.042237 -0.0135775 0.34178 115 110 70
0.0504791 0.120987 0.387732 90 40 27
0.0245013 -0.00687628 0.328656 148 147 94
0.0245467 -0.00355252 0.323909 32 36 14
0.103632 -0.000363694 0.402433 74 61 36
0.0406511 0.127299 0.401561 56 14 6
-0.0217808 -0.107927 0.405739 96 102 72
-0.00780405 -0.093679 0.38901 97 104 70
0.0143586 -0.0565765 0.377871 108 114 79
0.0433584 -0.057673 0.413221 148 156 126
0.0361401 -0.0598147 0.431582 138 144 117
0.0212988 -0.0396862 0.378841 112 119 79
0.0675571 -0.032045 0.383645 151 155 120
-0.0364029 -0.0215513 0.391305 137 138 86
0.0843473 -0.0236906 0.369225 80 86 76
-0.048843 -0.00829866 0.398191 146 131 90
0.0458564 -0.0122925 0.436831 133 119 88
0.100135 -0.0127011 0.410269 122 136 96
0.066634 -0.0123674 0.465859 120 102 82
0.00453592 0.011529 0.342853 145 143 94
0.00111312 0.022771 0.317391 118 113 78
0.0965117 0.00176242 0.442627 129 112 92
-0.0234222 0.0242366 0.34845 126 85 66
0.0436624 0.0300404 0.284495 98 108 80
0.0405904 0.0315998 0.288243 93 102 74
0.115724 0.0225275 0.374803 110 64 49
0.0537312 0.0346557 0.343489 36 20 10
0.0410954 0.0391844 0.279838 114 120 87
0.0486562 0.0383311 0.330909 22 6 2
0.117138 0.0276018 0.388219 125 101 88
0.106662 0.0458902 0.436576 134 123 108
0.0395323 0.0548032 0.264559 101 104 81
-0.000540233 0.068611 0.361383 136 111 89
0.118344 0.051044 0.38814 126 112 96
0.106289 0.0568461 0.435322 62 41 22
0.0198843 0.0738342 0.356232 106 70 63
0.102266 0.0671594 0.442264 126 110 98
-0.0018915 0.0868404 0.378811 140 113 92
0.102646 0.0737189 0.417186 47 28 22
0.0813791 -0.107528 0.376327 125 131 86
0.0629593 -0.0636743 0.369926 126 134 92
0.0463276 -0.0673712 0.410494 106 114 72
0.0724013 -0.0201588 0.319392 86 93 85
-0.0300156 -0.018232 0.398048 121 120 68
0.0691854 -0.0146312 0.325714 78 88 77
0.068415 -0.0150838 0.339741 95 104 81
0.0494446 -0.0102241 0.331907 104 103 66
0.00556087 0.0173096 0.310987 76 79 56
0.00793602 0.0202941 0.322123 66 64 46
0.0966486 0.00198527 0.441532 114 98 78
0.100486 0.00494134 0.430085 46 22 4
0.0299935 0.0460518 0.312843 94 70 46
0.114123 0.0392403 0.38647 108 78 68
0.042492 0.0525154 0.272188 42 52 34
-0.00145624 0.0689183 0.362715 158 139 116
0.0819599 0.0543302 0.352552 46 17 12
0.0813108 0.0612148 0.355629 39 16 15
0.105318 0.0701728 0.417743 46 26 18
0.00167241 0.0987133 0.388234 144 118 98
0.023087 0.100462 0.377543 120 98 96
0.130652 0.0737208 0.306792 76 44 24
0.0372305 0.0925832 0.242547 78 72 42
0.038353 0.0928154 0.238424 130 118 102
0.0686236 -0.0597453 0.355178 136 143 100
0.0784992 -0.0510899 0.329267 102 110 66
0.015461 -0.0560765 0.375215 100 107 71
0.0785257 -0.0371109 0.325558 92 100 73
-0.0951876 -0.0194367 0.391063 86 63 14
0.024862 -0.0156948 0.367277 56 57 16
0.00707721 0.0175447 0.308506 72 74 50
0.00382189 0.0230944 0.313403 114 106 70
0.0444954 0.0390708 0.273482 106 110 78
0.0400594 0.0411867 0.279218 97 100 73
0.0381594 0.0486501 0.274215 92 93 66
0.110207 0.0391585 0.380921 58 27 18
0.105994 0.0423253 0.387045 69 40 34
0.0382443 0.059721 0.266979 130 132 111
0.0982907 0.0892802 0.382097 81 50 43
-0.0413267 -0.0686909 0.358517 79 82 46
0.104752 -0.0428696 0.239342 136 138 96
-0.0243521 -0.0556919 0.36454 81 85 45
0.0661405 -0.0593866 0.359783 139 146 104
0.00379552 -0.0337219 0.377662 89 94 48
0.0663183 -0.033159 0.386943 141 147 110
0.132427 -0.0392382 0.408671 86 86 50
-0.0389591 -0.00296071 0.415933 126 110 69
0.0992861 0.00511539 0.436544 41 16 2
0.0805584 0.0290914 0.371194 12 12 2
0.0554212 0.040795 0.677809 86 67 48
0.112388 0.0330313 0.412056 50 22 14
0.109906 0.0405907 0.431982 86 74 58
0.109274 0.0427389 0.361529 156 130 124
0.109516 0.0460151 0.425806 148 141 126
0.102218 0.0533223 0.37644 100 78 74
0.10142 0.067212 0.445894 109 94 80
-0.00909552 0.08883 0.391565 140 115 92
0.10068 0.0733555 0.430719 118 104 100
0.0255996 0.0831715 0.359814 31 8 2
0.102374 0.0775425 0.445923 92 72 48
-0.0529572 0.0957492 0.23544 98 89 68
0.0238348 0.0979736 0.373235 117 87 76
0.0388459 0.0919815 0.240409 78 72 42
0.0378216 0.0930833 0.239248 128 116 98
0.00573547 -0.0835737 0.398295 95 107 58
0.00288076 -0.0370834 0.36228 98 103 63
0.131863 -0.0396588 0.409586 93 90 54
-0.0530765 -0.00878632 0.40464 132 119 76
-0.0165004 -0.000624803 0.376459 116 98 60
0.0132103 0.0168562 0.317299 64 66 46
0.107126 0.00623736 0.399393 60 41 28
0.11697 0.0148102 0.39017 124 94 75
0.106048 0.0360114 0.362819 96 73 60
0.0209833 0.0573966 0.343688 75 28 16
0.0193808 0.0594574 0.347258 40 15 8
0.0185377 0.0647453 0.349358 96 56 46
0.108817 0.0517026 0.351653 94 71 66
0.0996534 0.0679845 0.451454 94 72 58
0.105193 0.0741706 0.404126 40 23 17
0.0233749 0.0998887 0.375905 98 70 65
0.00730756 0.11171 0.39153 138 112 91
0.0728072 0.0998451 0.391007 40 14 11
0.0814202 0.112411 0.42765 80 48 49
0.167863 -0.0956842 0.351307 156 161 111
-0.0563279 -0.0825244 0.337044 87 85 53
-0.0178862 -0.0499487 0.368135 72 78 41
0.0893905 -0.0410627 0.298265 110 119 82
0.110086 0.0279851 0.376678 113 70 46
0.0593782 0.0429845 0.320504 104 70 60
0.0115397 0.0551641 0.344576 130 80 51
0.109472 0.0498059 0.332846 62 46 28
0.103469 0.0654827 0.412013 36 16 11
0.0408829 0.0794984 0.353763 36 6 0
0.100223 0.0850845 0.438656 75 44 28
0.13317 0.0742645 0.297855 112 78 52
0.0423329 0.0898262 0.237751 68 64 32
-0.0365523 -0.0699104 0.336823 99 102 60
-0.0134411 -0.0487866 0.360535 91 98 55
-0.000929441 -0.0382194 0.367863 82 88 51
0.0683705 -0.0335142 0.38032 82 89 55
0.0501825 -0.0156715 0.382201 116 124 93
-0.029634 0.00879526 0.358291 150 142 87
0.096328 -0.00404942 0.457342 128 105 87
0.114262 0.0154781 0.399288 138 108 91
0.0552004 0.0389915 0.34136 46 32 26
0.0933374 0.046667 0.497328 126 115 100
0.0893528 0.045753 0.204155 156 128 100
0.027911 0.0669034 0.2772 154 144 121
0.0255701 0.0935771 0.236036 104 98 78
0.0705937 -0.0341383 0.37568 112 118 80
0.0014734 0.00666262 0.347459 148 143 89
0.0499774 0.0204751 0.404051 10 10 4
0.108021 0.0369015 0.3931 126 92 82
0.0387553 0.0609317 0.263308 61 61 35
0.0155235 0.141427 0.420032 102 72 64
0.153225 -0.0882467 0.355568 134 136 91
0.141325 -0.034657 0.201721 120 126 82
0.0405856 0.0325703 0.293223 16 16 4
0.0299628 0.0627414 0.259738 123 115 90
-0.0538063 0.096362 0.236304 98 85 68
-0.187484 -0.154644 0.86579 116 117 78
0.00752903 -0.0130173 0.37352 102 104 68
0.132229 -0.0693285 0.349211 73 80 52
-0.0281574 -0.124407 0.419756 142 148 100
0.171035 -0.0974384 0.348627 148 152 100
0.043485 -0.0621163 0.350443 132 138 89
0.0722085 -0.0197969 0.319704 86 94 84
0.0476705 -0.0594374 0.340369 117 124 74
0.0826539 -0.0202349 0.452292 92 96 62
-0.0237957 0.0439857 0.358258 98 53 30
0.112628 0.0487864 0.323413 82 62 44
0.0400352 0.0915927 0.237435 96 87 60
0.161747 -0.0860173 0.337113 158 161 106
0.0415307 0.090824 0.235148 93 84 58
0.167421 -0.0942507 0.354922 40 46 18
-0.0818263 -0.0250678 0.38459 64 56 22
0.152158 -0.0889723 0.357938 122 125 82
0.117172 -0.0583975 0.355466 68 76 52
0.0984774 -0.0413282 0.359714 82 88 66
0.0678299 -0.0153078 0.329704 74 84 70
0.117456 -0.0304293 0.415983 102 108 66
0.104847 -0.0197313 0.418584 130 139 104
-0.0323541 0.00667086 0.36084 142 128 78
0.0272766 0.0103434 0.309244 109 108 58
0.0419685 0.0363909 0.287366 117 108 84
0.111982 0.0238364 0.43196 99 92 76
0.116626 0.0286319 0.389301 74 48 34
0.105636 0.0310677 0.377602 94 48 21
0.10798 0.0354046 0.437431 146 137 123
0.108582 0.036439 0.434659 70 58 44
0.108259 0.0409288 0.439265 102 92 78
0.0856906 0.044639 0.338135 102 82 60
0.107971 0.0443642 0.366132 74 54 50
0.104879 0.0523623 0.446917 112 102 85
0.104978 0.0540658 0.447556 56 47 32
0.101558 0.0532314 0.378905 126 103 102
0.104522 0.0559742 0.449136 102 90 76
0.105663 0.0625344 0.415018 98 74 64
0.101309 0.0619884 0.379433 120 100 97
0.100695 0.0663842 0.450796 134 124 110
0.0987503 0.0779596 0.400782 106 76 73
0.0237231 0.0979743 0.374223 124 90 80
0.0994349 0.0884618 0.43048 105 84 80
0.0749444 0.0976794 0.379493 114 96 92
0.0882662 0.122108 0.430239 112 88 84
0.0887564 0.122563 0.433321 70 40 34
0.0704962 0.122783 0.399228 122 99 96
0.170647 -0.0971222 0.347309 146 151 104
0.152144 -0.0908142 0.362209 154 158 110
0.151188 -0.0896499 0.360122 125 130 82
0.0985769 -0.0412839 0.35944 64 69 48
0.117532 -0.0304064 0.415151 140 151 106
0.0463337 -0.0122114 0.432724 92 74 56
0.0160981 0.0120894 0.321075 139 138 86
0.109715 0.0293401 0.434775 62 46 33
0.111439 0.0313477 0.432455 87 77 62
0.106946 0.0353627 0.440265 122 110 96
0.11314 0.036234 0.377587 69 32 16
0.108734 0.0374464 0.435611 68 54 42
0.0852338 0.0442735 0.338581 76 60 38
0.106123 0.0413224 0.367972 94 68 59
0.101802 0.0430301 0.341158 112 94 77
0.0997516 0.0621362 0.382157 99 76 74
0.0964537 0.0642322 0.38505 34 11 10
0.102171 0.0652972 0.420396 37 20 12
0.0242368 0.0998668 0.37564 115 90 78
0.169497 -0.0961203 0.347303 110 112 65
-0.00587636 -0.0329892 0.362038 78 79 52
0.0858973 -0.0191364 0.441334 117 119 84
0.0795146 -0.0179516 0.453152 144 147 110
0.00580646 0.0288153 0.320208 162 142 115
0.112871 0.021448 0.386146 139 100 88
0.0442777 0.0383116 0.340265 18 5 3
0.0899474 0.0311091 0.354023 15 16 4
0.117955 0.028511 0.385401 122 98 85
0.0960001 0.0344631 0.345708 15 12 3
0.116833 0.034339 0.389254 93 72 66
0.107119 0.0411754 0.442071 89 77 62
0.0992176 0.0565223 0.380364 26 3 1
0.10441 0.0679015 0.434567 51 28 18
0.101949 0.0749197 0.419009 38 22 19
0.0970022 0.0839383 0.45721 110 92 76
0.0220899 0.0987613 0.376938 116 78 67
0.0773002 0.0863868 0.37074 118 92 86
0.0987973 0.0882149 0.431517 87 64 60
0.0266192 0.112391 0.384833 118 78 70
0.0953846 0.102961 0.439574 95 70 64
0.0906 0.119519 0.448665 94 65 58
0.0524175 0.122246 0.38798 116 87 82
0.0820331 -0.0202986 0.4529 64 58 26
0.0233093 0.0113903 0.311958 144 141 86
0.0179618 0.0392681 0.3487 22 10 4
0.0414609 0.0467134 0.270789 96 99 74
0.108962 0.0351638 0.43357 116 102 88
0.112632 0.0368269 0.378289 60 28 15
0.109318 0.037817 0.429065 48 28 16
0.00352609 0.0604717 0.362988 107 60 36
0.110291 0.0408282 0.381644 100 71 64
0.111774 0.0454832 0.397315 65 46 38
0.10764 0.0471771 0.429313 55 32 22
0.101691 0.0536254 0.377988 113 92 92
0.100668 0.0561786 0.376283 24 2 0
0.0960132 0.0945739 0.459426 77 50 34
0.0904155 0.119763 0.448074 94 68 60
0.0676332 0.137642 0.418076 72 35 30
0.167363 -0.0921161 0.348259 40 47 15
0.15019 -0.0897458 0.360852 148 155 104
0.0930238 -0.0179708 0.432647 142 154 111
0.113982 0.01964 0.419409 76 55 38
0.112783 0.0216791 0.384381 146 103 87
0.105343 0.0278715 0.378648 107 66 44
0.108296 0.0266668 0.436958 122 112 99
0.113982 0.0368102 0.374114 78 47 36
0.106925 0.040939 0.366471 118 92 82
0.109747 0.040997 0.384187 104 72 65
0.107343 0.0449943 0.36204 105 73 66
0.100985 0.0536983 0.378869 64 36 33
0.105352 0.0560041 0.410968 22 8 4
0.106099 0.0575058 0.434732 54 33 20
0.0816507 0.0594667 0.351949 101 76 68
0.104844 0.0581589 0.435382 48 26 16
0.0227424 0.0731506 0.348631 42 11 2
0.101925 0.065936 0.445809 104 88 74
0.103811 0.0723445 0.418349 62 48 42
0.103489 0.075204 0.413352 39 24 22
0.0961845 0.102587 0.437066 84 58 54
0.0446519 0.0897283 0.235202 92 82 58
0.0458368 0.0898506 0.232496 128 115 96
0.0257512 0.128772 0.400761 88 52 44
0.165992 -0.0939384 0.353675 52 57 26
0.131294 -0.0393831 0.410548 88 82 52
0.114408 -0.0278258 0.419186 142 154 114
0.113117 0.0256486 0.422901 100 86 75
0.101195 0.0334934 0.454692 68 45 32
0.0606452 0.0406161 0.32901 44 25 18
0.046318 0.0485826 0.327209 172 125 96
0.107056 0.0452142 0.362733 105 73 66
0.0376802 0.0603532 0.266862 126 122 102
0.104402 0.0695391 0.428642 36 14 7
0.0400746 0.0795463 0.355789 36 6 1
0.0957246 0.0943155 0.458802 78 45 30
0.0551043 0.11922 0.381097 116 80 72
0.0473559 0.142524 0.402759 115 70 55
0.0394591 -0.0241533 0.407048 155 160 109
0.0902908 -0.0195737 0.440351 142 156 110
0.110951 0.0213632 0.440764 142 145 130
0.112242 0.0259625 0.425977 113 102 90
0.101096 0.0306701 0.381456 36 12 5
0.106783 0.0302201 0.440359 56 34 20
0.0560748 0.0416778 0.336096 30 14 7
0.0990461 0.0336476 0.371126 83 56 42
0.100686 0.0400911 0.341199 102 82 66
0.0929958 0.0489402 0.326321 158 118 102
0.0418967 0.0603979 0.261381 154 149 130
0.0229435 0.0850238 0.365664 32 13 10
0.0434548 0.0792929 0.352577 37 8 2
0.0348304 0.0836691 0.355043 27 6 2
0.131189 -0.041637 0.406771 86 84 44
0.112689 0.0213553 0.43815 142 145 130
0.0160529 0.0426445 0.339676 35 28 15
0.0870566 0.0451504 0.333798 106 70 45
0.106188 0.0570017 0.433976 79 56 43
0.1002 0.0699391 0.443574 44 20 11
0.0954077 0.0939024 0.457895 79 44 30
-0.083973 -0.0952954 0.326326 44 45 18
0.169907 -0.0950873 0.345431 96 100 55
-0.0210195 -0.107041 0.404499 92 96 63
-0.0171437 -0.0415228 0.358891 62 66 42
0.0387191 -0.0141582 0.476189 159 131 90
0.118466 0.0110431 0.390788 48 22 8
0.117103 0.0161755 0.386002 72 43 24
0.112578 0.0220466 0.386003 112 72 58
0.0131065 0.0675382 0.359837 121 86 77
0.102357 0.0547485 0.379765 27 6 4
0.100821 0.0564486 0.377118 28 7 4
0.102429 0.0674756 0.44233 70 51 40
0.0876787 0.110347 0.408902 114 90 84
0.0819791 0.123174 0.418706 61 28 26
0.0801308 0.131712 0.427113 65 50 46
0.0756752 0.134254 0.423535 72 47 44
0.029974 -0.0127065 0.341916 57 60 25
0.0380955 -0.0142645 0.475341 167 143 101
-0.122636 0.0376933 0.497293 134 118 94
0.118962 0.0160247 0.38007 106 76 58
-0.387057 0.0987604 0.880458 53 48 30
0.115511 0.0404137 0.385998 114 86 76
0.0177914 0.0807562 0.595579 44 21 17
0.100157 0.0564064 0.378173 23 4 0
0.055061 0.0771296 0.353176 116 88 82
0.127289 0.0696986 0.310629 93 78 39
0.027061 0.128957 0.400232 111 76 69
0.0811667 0.130691 0.424588 86 71 68
0.0447579 -0.0680097 0.413686 98 102 62
-0.0944711 -0.0210053 0.39611 132 120 67
0.109843 0.0408262 0.382565 98 68 60
0.114497 0.0405703 0.388197 110 80 70
0.0539718 0.0538965 0.338545 71 34 15
0.102447 0.0528755 0.376621 107 82 79
0.167224 -0.0922581 0.349256 37 41 16
0.103316 -0.0484541 0.266554 110 116 76
0.0468589 -0.0674623 0.409838 124 128 87
-0.0485469 -0.0158231 0.38817 150 142 93
0.0940601 0.0340459 0.348586 23 22 10
0.108028 0.0420597 0.37762 38 13 6
0.0589845 0.117195 0.376447 87 48 40
0.0674299 -0.00628837 0.450626 30 12 2
0.0586948 0.0407245 0.331441 42 25 18
0.100402 0.070166 0.443446 44 20 14
0.0983275 0.0884005 0.432458 84 62 57
0.0212593 0.140119 0.409363 90 60 55
0.0903628 -0.0186073 0.439033 144 156 114
0.114371 0.0105932 0.418217 118 94 66
0.0757966 0.0622052 0.35679 24 4 0
-0.00223255 0.0805185 0.374832 154 134 114
-0.00780958 0.0713729 0.374309 150 127 108
0.1061 0.0645286 0.405477 40 17 14
0.0286878 0.00752174 0.375915 30 28 12
0.0460796 0.124683 0.389169 52 12 6
0.0443159 0.144548 0.408727 112 67 52
0.0672491 0.13709 0.403448 116 80 72
-0.0680821 -0.0881911 0.33625 87 88 66
-0.0471042 -0.0741901 0.352672 98 96 50
0.0514721 -0.0357349 0.272392 120 120 77
0.0235897 -0.0408006 0.31395 142 144 100
0.00388244 -0.0271059 0.360226 73 77 48
0.0251086 -0.0105817 0.340016 99 102 64
0.0339261 -0.00150867 0.34216 118 120 86
0.0394583 -0.00023672 0.331366 36 41 13
0.0509732 -0.0107101 0.42506 100 82 61
0.104345 0.0359575 0.370852 74 46 24
-0.00223494 0.0579178 0.360672 66 32 12
0.0747928 0.108036 0.385034 122 94 90
0.0785832 0.132105 0.418621 62 36 34
0.0522075 0.141242 0.403302 152 116 104
-0.00522625 -0.048322 0.349763 140 138 94
0.132999 -0.026841 0.230658 133 138 100
-0.098834 -0.0194925 0.397606 96 70 26
0.073561 -0.0197778 0.317107 86 90 80
0.115007 0.0284728 0.394198 110 84 72
-0.00658319 0.0596105 0.365597 130 103 84
0.113638 0.039276 0.388213 110 79 70
0.0785525 0.0615866 0.355271 28 7 2
0.0525412 0.0877173 0.360452 56 20 8
0.0511262 0.123326 0.390597 115 88 84
-0.020971 -0.0550946 0.360125 138 138 92
0.0406144 -0.0366719 0.290724 150 149 106
0.0559944 -0.0320693 0.274657 138 138 89
-0.0070227 -0.0399755 0.367605 86 86 56
0.00542939 -0.0143457 0.346857 120 118 68
0.0295158 0.0373814 0.330355 23 10 4
0.110745 0.0261393 0.380017 112 68 44
0.0394638 0.0476196 0.272446 92 92 64
0.0900956 0.0517177 0.335936 86 56 43
0.0969409 0.0643718 0.383931 31 7 6
-0.00800075 0.0912371 0.391764 151 126 104
0.0464271 0.143172 0.406686 96 53 36
0.0830798 0.0604824 0.353984 21 8 4
0.0796029 0.0765554 0.362368 122 104 100
0.0760317 0.0869385 0.37312 124 98 92
0.0360732 0.0923684 0.244267 95 84 61
0.0430495 0.14152 0.405403 98 50 30
-0.0460625 -0.0732616 0.349844 52 58 24
-0.0166628 -0.0541367 0.353217 111 112 69
-0.00174532 -0.0471774 0.344157 130 130 84
0.0365777 -0.0364533 0.299841 139 141 94
0.0035374 -0.023772 0.370272 88 86 60
0.0449663 0.000417647 0.324134 47 52 23
0.113396 0.00176466 0.38542 67 47 26
0.00778042 0.0598269 0.360156 96 61 46
0.0796428 0.0696142 0.363411 27 11 8
0.0753488 0.0787609 0.365053 44 16 13
0.0100653 -0.0125147 0.347354 149 146 94
0.00790207 -0.0102779 0.355969 146 144 101
0.0473523 0.0401506 0.338069 10 6 1
0.110499 0.0378662 0.380937 67 38 28
0.0864613 0.0460038 0.336445 108 76 56
-0.00711004 0.0863122 0.384778 136 110 88
0.0351956 0.0929085 0.244353 112 101 80
-0.0107208 -0.066843 0.297206 98 100 58
-0.0488862 -0.0158604 0.386349 151 143 86
0.0230272 -0.00907889 0.335847 134 132 88
0.087253 0.000901124 0.255666 118 120 74
0.0386437 0.0206464 0.386361 74 73 61
-0.00709453 0.0860443 0.384719 136 110 88
-0.0883967 -0.0261066 0.39321 94 84 45
-0.0477039 -0.0146763 0.383511 149 143 84
0.0166714 -0.00808551 0.337539 36 39 16
-0.0139413 0.105807 0.411509 146 130 110
-0.000953256 0.117781 0.408889 140 116 96
0.0377208 0.0880379 0.24937 56 60 30
-0.0649449 -0.158193 0.449026 110 113 66
-0.0404116 -0.126037 0.41526 101 102 58
-0.0291101 -0.125675 0.418121 92 97 62
-0.0166523 -0.111023 0.4121 110 116 70
0.11417 -0.0445918 0.22788 118 114 74
0.10859 -0.04546 0.236731 150 146 104
0.104876 -0.0449027 0.242437 150 147 108
0.100241 -0.0452489 0.24897 94 90 54
0.10062 -0.0436438 0.248172 153 150 112
0.0980178 -0.0421499 0.251106 116 112 73
0.094017 -0.0420027 0.256987 143 142 109
0.0876619 -0.041407 0.264612 102 104 73
0.044573 -0.0587157 0.410825 98 103 60
0.0851318 -0.030774 0.297306 89 99 89
0.0797545 -0.0261874 0.309461 84 94 78
-0.0971154 -0.0195994 0.392686 85 65 18
0.0758399 -0.0219934 0.312453 89 96 86
0.0103182 -0.0235159 0.369119 70 74 42
0.0717146 -0.019962 0.313937 84 89 76
-0.0440665 -0.00829122 0.392001 114 100 58
0.105878 -0.00276785 0.406175 122 112 78
-0.0268991 0.0226697 0.351125 116 83 60
0.121301 0.0181818 0.373433 52 24 8
0.113567 0.0208871 0.396377 60 32 14
0.11399 0.0339951 0.397745 120 99 90
0.0816582 0.0612715 0.349482 31 7 4
0.0964989 0.0645214 0.386381 26 6 4
0.102527 0.0669845 0.441324 110 92 79
0.0555603 0.0765744 0.351902 112 84 77
0.100979 0.0826195 0.443136 100 76 58
0.0996215 0.0798435 0.407993 84 52 47
0.0523147 0.0881587 0.36149 52 17 8
0.00447731 0.114387 0.401448 128 96 78
0.0510868 0.135344 0.402226 56 15 9
-0.0267926 -0.119662 0.395602 132 132 86
-0.0290883 -0.0896991 0.414883 113 116 69
0.108596 -0.0434644 0.236247 124 121 82
0.100563 -0.045136 0.248081 118 117 72
0.0933255 -0.0423795 0.257899 136 137 100
0.087332 -0.0329141 0.283704 88 90 84
0.0443689 -0.052564 0.410111 115 122 74
0.0418544 -0.0464375 0.413835 108 116 72
-0.0680435 -0.0298085 0.395348 116 116 61
0.0718576 -0.0200805 0.313326 75 80 68
0.0997829 -0.014494 0.415474 86 98 60
-0.444836 0.0949055 0.980822 140 124 114
0.119009 0.0339428 0.383751 124 102 94
0.083799 0.053804 0.349834 40 12 6
0.0299718 0.0626299 0.260076 138 130 109
0.104539 0.0609802 0.434549 55 30 18
0.101432 0.0824267 0.442552 106 86 69
0.0230151 0.0978818 0.375099 103 66 54
0.0245854 0.0988095 0.376983 54 20 12
0.100346 0.0871537 0.428328 102 76 72
0.076888 0.0930031 0.377359 58 28 22
-0.00356096 0.117557 0.413696 138 111 93
-0.0166214 -0.111057 0.411658 100 105 64
0.109676 -0.042898 0.233766 148 148 100
0.100622 -0.0438721 0.248416 153 150 111
0.0429777 -0.0460596 0.411568 120 127 84
0.0255946 -0.0167007 0.366571 54 58 18
-0.474229 0.0986006 1.02285 148 134 127
0.0258673 0.0528242 0.31806 144 110 90
0.0292262 0.054696 0.268665 140 132 108
0.103808 0.0482482 0.441379 50 28 15
0.052771 0.0561732 0.332601 166 118 96
-0.00583838 0.0708415 0.37252 156 133 112
0.0955113 0.0649389 0.382156 38 18 14
0.0804976 0.0694245 0.361358 24 8 4
-0.0680543 0.115176 0.513803 39 8 2
-0.0301721 -0.126104 0.419362 78 86 52
-0.0227983 -0.119073 0.413682 108 114 68
-0.0674236 -0.0826943 0.330459 88 88 66
-0.0137653 -0.0973378 0.399476 92 102 67
0.094346 -0.0423305 0.256062 135 137 100
0.0407645 -0.0469142 0.415764 136 143 98
0.0325786 -0.0151983 0.354145 48 56 16
0.0205242 0.0237534 0.306163 139 132 98
0.0578925 0.0532884 0.337065 86 48 30
-0.00466124 0.0804528 0.378726 146 124 101
0.0789206 0.0688216 0.360075 112 85 81
0.0303088 0.0832468 0.354467 22 4 2
0.0770695 0.0932983 0.376959 55 27 23
0.0376649 0.0928004 0.240296 115 102 84
0.0928222 -0.0452716 0.257685 152 156 106
-0.000204054 -0.0330615 0.374532 85 86 54
0.123651 0.0129235 0.373727 90 62 42
0.0973288 0.036847 0.371839 113 84 70
0.104479 0.0455993 0.443298 108 96 81
0.0201371 0.0649687 0.34788 118 82 74
0.0969644 0.0625838 0.388251 94 71 69
0.102539 0.073239 0.427746 33 17 12
0.0323195 0.0844716 0.35988 29 6 1
0.0767843 0.0778412 0.366359 68 40 39
0.100474 0.0826627 0.444061 88 62 42
-0.0606191 -0.084467 0.342276 92 89 56
-0.0300463 -0.0613396 0.357971 102 103 58
0.0933289 -0.0426023 0.257486 114 117 80
0.0327533 -0.0155444 0.352418 46 55 16
0.0435429 0.0398091 0.337574 56 36 30
0.117796 0.029506 0.383678 133 108 100
0.0455823 0.0456304 0.282597 124 108 86
0.0812226 0.0589148 0.351853 82 49 44
-0.00256409 0.0887044 0.38233 148 128 105
0.101011 0.082547 0.442271 89 62 45
0.078796 0.0943125 0.369992 104 83 80
0.119071 -0.0258946 0.403002 144 158 112
0.0461982 0.048948 0.284059 104 72 52
0.0997434 0.0669343 0.450507 100 82 70
0.0115413 0.0866391 0.364803 114 86 66
0.101925 0.0771215 0.445266 96 62 35
0.104135 0.0902494 0.432501 80 46 31
0.0112811 0.112032 0.388556 141 119 100
-0.00127096 0.124438 0.413571 136 113 97
0.0475639 0.14234 0.402224 107 62 47
-0.0887489 -0.0195707 0.383864 106 88 38
0.122445 0.0114784 0.377486 117 86 76
0.0452027 0.0405072 0.328651 11 7 5
0.0956377 0.0563358 0.383076 62 30 28
0.0223662 0.0737158 0.348889 26 6 2
0.104928 0.0807738 0.430265 86 56 38
0.0159978 0.141691 0.416838 130 102 94
0.141212 -0.084388 0.360729 98 102 61
0.110463 -0.0532216 0.358245 60 66 42
0.10792 -0.0462483 0.36079 74 79 62
0.092185 -0.036268 0.364203 74 80 58
0.00542663 -0.0231411 0.369312 87 88 60
0.0352097 -0.0143558 0.465448 170 158 126
0.0932392 -0.00706904 0.408897 79 65 40
0.127284 -0.00250141 0.38414 98 66 50
0.00877506 0.0204575 0.32151 69 68 52
-0.0245759 0.0331611 0.359162 88 52 31
0.0413225 0.0389238 0.279173 110 115 82
-0.121946 0.0540304 1.10322 122 100 90
0.0310046 0.0569754 0.275666 99 100 76
0.111409 0.0466494 0.393325 34 14 8
0.0781251 0.0706175 0.365715 32 12 8
-0.014063 -0.110013 0.408166 107 112 72
0.159818 -0.0921517 0.356548 111 114 73
0.143091 -0.0832196 0.356061 130 136 94
0.141212 -0.084388 0.360729 98 102 61
0.138949 -0.073546 0.351794 66 69 44
0.115116 -0.0608047 0.363597 64 72 48
0.103547 -0.00539111 0.419573 122 122 92
0.0120105 0.0476099 0.337303 110 80 50
0.109632 0.0460525 0.423073 98 84 70
0.11056 -0.0532887 0.358157 58 64 38
0.0761785 -0.0240007 0.373579 62 65 52
-0.0483828 -0.085483 0.962227 134 146 104
-0.0642251 0.0385852 0.410954 166 146 119
-0.0126155 0.0411862 0.345533 118 96 62
0.112183 0.0489386 0.324463 73 55 38
-0.0238351 0.0904187 0.431487 36 8 0
0.11644 -0.0591993 0.358325 74 82 56
0.0867019 -0.029718 0.364098 78 84 69
0.100424 -0.00654862 0.431809 126 128 96
0.106263 0.0563056 0.403361 76 57 51
0.167763 -0.100836 0.359393 158 163 114
0.142202 -0.0525527 0.298581 56 60 33
0.101307 -0.00610234 0.426833 100 100 70
0.00977425 0.0164963 0.328572 38 47 24
0.0387088 -0.0687862 0.389663 118 122 96
0.0308427 0.0658587 0.273358 158 150 131
-0.0335622 -0.000670727 0.365309 101 84 48
0.0398208 -0.0128047 0.459485 162 152 104
-0.0216334 0.0560478 0.387043 145 108 82
0.112385 0.0356963 0.368781 150 115 99
0.0410043 0.0410796 0.350743 14 8 4
0.0359859 0.0450683 0.305394 103 68 46
0.0312972 0.0118943 0.329757 62 67 45
-0.167711 0.0391562 0.417112 154 144 114
-0.115675 -0.121768 0.327611 98 92 46
-0.104024 -0.111475 0.334882 78 80 36
0.164662 -0.0900286 0.345796 116 119 78
0.156766 -0.088505 0.352944 110 112 72
0.0810379 -0.0355678 0.275459 137 132 96
0.0807762 -0.0346276 0.275545 104 100 58
0.0406684 -0.0469098 0.415674 92 96 56
-0.0759782 -0.0306366 0.39491 114 111 57
0.12861 -0.0436996 0.415615 72 72 34
0.0870011 -0.0306243 0.36449 71 75 60
0.087119 -0.0292121 0.362437 82 85 70
0.133214 -0.0394963 0.407981 91 96 56
0.122391 -0.0354071 0.411942 118 124 78
0.081212 -0.0219495 0.362198 76 80 63
0.0198048 -0.0110151 0.346146 96 96 60
-0.0532174 -0.00881233 0.402483 115 104 64
-0.0394982 -0.00348617 0.378367 106 96 43
0.0529801 -0.0134843 0.411371 154 154 120
0.0319523 -0.016763 0.474005 96 70 32
0.121355 -0.0227997 0.427759 104 80 58
0.0829141 -0.0204038 0.451365 58 57 18
0.107509 -0.0181196 0.409088 104 114 70
0.041314 -0.0116793 0.429457 78 69 55
0.0868463 -0.0189493 0.44282 156 152 116
0.0254307 0.00432933 0.317008 113 110 60
0.034288 -0.0131585 0.460925 109 90 76
0.0857934 -0.0183232 0.450199 138 142 103
-0.0109569 0.00583839 0.387939 134 125 82
0.0454602 -0.0111944 0.492047 103 77 51
0.0594995 -0.0117134 0.475936 126 110 96
0.0291799 0.0105765 0.328158 138 136 89
-0.0147846 0.0121155 0.384886 134 128 78
-0.0988361 0.027339 0.348413 136 133 92
0.0251106 0.0159582 0.335036 63 64 49
0.0268091 0.0167324 0.347908 58 56 44
-0.0291644 0.0249035 0.355497 123 93 71
0.123564 0.00496843 0.378821 116 81 69
-0.0255322 0.0282283 0.388886 130 113 92
-0.0269758 0.0298758 0.388842 128 109 90
0.124127 0.00836045 0.379936 72 44 26
-0.0409344 0.0339413 0.40223 141 122 106
-0.0210213 0.0349916 0.376427 150 135 114
0.113816 0.0110181 0.420781 92 67 43
0.0343776 0.036074 0.279422 117 111 86
0.108057 0.0194288 0.4336 68 48 34
-0.00343048 0.0419258 0.37353 16 5 0
0.0424457 0.0376873 0.285332 160 155 134
0.117288 0.0222253 0.385922 72 48 31
0.0433099 0.0388173 0.276637 108 112 85
-0.0136032 0.0470249 0.370413 62 43 27
-0.0252736 0.0494053 0.395409 150 127 112
0.0176387 0.0442495 0.326468 106 82 54
0.0425202 0.0463931 0.269895 102 108 86
0.120912 0.0311862 0.388447 94 73 64
0.00818307 0.0537184 0.341588 132 95 75
0.109234 0.0334563 0.437965 111 102 91
0.110763 0.0350723 0.406616 111 96 92
0.110478 0.0367631 0.426134 28 12 4
0.105136 0.0386945 0.440515 34 16 6
0.0618695 0.047675 0.330461 104 74 60
0.112106 0.0377233 0.382707 140 104 90
0.111611 0.0378722 0.400301 62 42 36
0.000233761 0.0603821 0.362044 93 48 24
0.114948 0.0394573 0.385598 90 60 52
0.0366733 0.05569 0.266935 102 106 84
0.0375666 0.0562905 0.271088 98 108 88
0.0355846 0.0577978 0.272124 112 118 100
0.106034 0.0446445 0.371651 54 34 28
0.103776 0.0457365 0.421084 86 61 55
0.105699 0.045672 0.439215 118 102 90
0.113813 0.0441961 0.395898 72 54 48
0.0376963 0.0586088 0.268696 152 150 129
0.103251 0.0526538 0.375598 120 102 98
0.10514 0.0556876 0.440821 112 92 79
0.0850462 0.0582273 0.346614 92 72 56
0.100117 0.0628927 0.384445 31 9 6
0.0972627 0.0674098 0.458252 132 120 107
0.0993076 0.0691192 0.453331 84 68 54
0.102845 0.0711079 0.422307 116 100 92
0.0955094 0.073541 0.38723 34 8 4
0.0520213 0.0869468 0.363225 120 88 78
0.0540666 0.0871729 0.360963 116 88 80
0.0956039 0.0806329 0.391039 98 71 66
0.0202127 0.102098 0.381298 110 76 68
0.0986611 0.0892383 0.432767 112 89 83
0.0963638 0.089844 0.392992 82 51 47
0.0928076 0.093467 0.396962 106 86 82
0.0269959 0.112104 0.384224 126 88 78
0.0206936 0.0969735 0.238968 112 99 83
0.0921197 0.105779 0.447417 107 82 80
0.0920032 0.118603 0.446104 100 72 65
0.0457914 0.128055 0.400654 54 17 11
0.0861835 0.125023 0.453329 58 33 25
0.0889503 0.12256 0.432616 65 36 32
0.0861599 0.124413 0.434854 119 98 95
0.0391625 0.141522 0.414952 98 52 33
0.0788006 0.132094 0.423392 57 32 29
0.0736776 0.135464 0.425004 84 62 61
0.0557347 -0.183591 0.46108 106 112 57
-0.108564 -0.119207 0.322799 89 82 38
-0.0248974 -0.108613 0.408999 87 92 59
0.0415869 -0.0465175 0.413867 123 126 83
-0.095841 -0.0326053 0.414315 135 130 76
-0.0996889 -0.0201494 0.395949 96 76 28
0.0799492 -0.0223104 0.364266 74 77 60
0.0119102 -0.0103992 0.352435 40 42 16
-0.0496705 -0.00876835 0.398642 99 87 52
0.0190808 -0.00724744 0.338552 66 66 39
0.0681804 -0.0156746 0.373228 74 79 60
0.122952 -0.0269222 0.416727 126 120 86
0.106221 -0.0196364 0.415586 156 164 123
0.0883775 -0.0184536 0.441593 128 120 86
0.0314874 -0.0137598 0.469575 70 52 36
0.0696632 -0.0170426 0.469117 152 154 112
-0.018962 0.00601752 0.397103 144 137 88
0.0266721 0.0167406 0.347801 54 51 38
-0.0340231 0.0253098 0.397962 94 81 61
0.117913 0.00464976 0.391574 128 92 82
0.125836 0.0092004 0.3777 134 108 87
0.114598 0.0109201 0.418357 105 82 58
0.126233 0.014835 0.367007 48 26 16
0.0511231 0.0317661 0.286417 90 64 40
0.0376478 0.0354962 0.29283 102 88 60
0.0150597 0.0420479 0.336716 56 40 23
0.00117518 0.0450969 0.353824 60 40 22
0.112267 0.0237098 0.43037 68 58 42
0.058534 0.0363324 0.338628 43 29 18
-0.0246647 0.0522467 0.393131 97 78 64
0.0392983 0.045548 0.265631 156 146 126
0.00622322 0.0521381 0.342773 118 76 50
0.107245 0.032603 0.360777 36 14 4
0.117857 0.03057 0.397738 90 66 53
0.106055 0.0332877 0.360375 111 90 78
0.111832 0.0315992 0.43214 94 80 66
0.111451 0.0327206 0.43219 82 66 54
0.00278304 0.0554176 0.350842 79 43 22
0.106845 0.0351284 0.418092 47 32 26
-0.000730242 0.0579794 0.356408 152 116 92
0.109 0.0371396 0.429355 41 25 16
0.0541439 0.048877 0.338128 52 18 8
0.102429 0.0408336 0.338266 120 100 80
0.0352311 0.0569915 0.266755 94 94 76
0.0341483 0.0575274 0.274377 58 68 47
0.109826 0.0436087 0.364706 102 80 74
0.10549 0.0457325 0.439571 118 101 89
0.0421861 0.0576594 0.264279 90 94 70
0.0925157 0.0484391 0.330387 120 90 65
0.00551099 0.0713422 0.372713 36 7 1
0.0972982 0.0547905 0.438078 60 36 26
0.108286 0.0545773 0.433922 114 94 80
0.101835 0.0546828 0.380922 24 8 6
0.109325 0.0537994 0.40458 29 13 8
0.105313 0.0637527 0.412576 37 18 10
0.0997065 0.0696565 0.382194 95 73 69
0.0352591 0.0841328 0.35811 38 6 0
0.0991142 0.0777491 0.399865 100 70 64
0.0962934 0.0837436 0.458476 116 102 86
0.0603081 0.0840893 0.351352 118 86 75
0.0942679 0.0811122 0.393479 90 60 55
0.160604 0.0563664 0.307255 48 22 12
0.026042 0.0973378 0.371365 114 75 64
0.0282492 0.0984709 0.372412 52 15 4
0.0948461 0.0906591 0.395543 80 48 44
0.0714891 0.122201 0.397071 110 79 77
0.0690567 0.126321 0.403135 110 88 84
0.0609117 0.130808 0.378156 119 69 51
0.0772393 0.133258 0.417134 120 98 97
0.0705589 0.136005 0.412564 74 37 30
-0.118447 -0.120489 0.327856 82 80 38
0.167667 -0.0912004 0.346543 36 42 12
0.0931982 -0.0400752 0.258225 132 128 84
0.0868128 -0.0374109 0.266509 119 115 71
0.11733 -0.0587693 0.355383 58 66 42
0.0840964 -0.0339323 0.271685 108 104 60
0.0937967 -0.0358569 0.360368 68 74 54
-0.0942833 -0.0193183 0.39291 91 68 22
-0.0533206 -0.0249413 0.406225 138 134 92
0.129565 -0.0401212 0.417474 83 86 47
0.00236163 -0.0152136 0.357519 87 86 57
-0.0340493 -0.0081851 0.367517 70 44 21
0.0182861 -0.0099369 0.345238 43 44 16
-0.0476311 -0.00858648 0.396315 104 92 56
0.0284217 -0.00582911 0.325029 34 35 10
-0.0407 -0.00369293 0.379248 71 56 12
0.0324936 -0.0149109 0.460289 82 66 44
0.0350275 -0.0130033 0.460497 94 77 61
0.0220529 0.00344028 0.320399 113 110 60
0.0364361 -0.0134643 0.462016 64 48 27
0.0647032 -0.011395 0.46467 89 71 56
-0.0274924 0.0119606 0.400448 142 136 78
0.0744782 0.0120188 0.266747 93 96 58
0.104394 -0.00209666 0.411026 34 22 2
0.121174 -0.00296406 0.398581 128 96 82
-0.0341226 0.0260478 0.40232 85 75 59
0.124258 0.00420744 0.379163 121 87 74
-0.0384381 0.0302676 0.402027 74 54 32
0.110094 0.00633562 0.41658 64 32 12
-0.0271007 0.0354145 0.383241 132 114 92
0.121702 0.0111655 0.382008 42 24 15
0.0325695 0.0361819 0.297852 116 104 76
0.112673 0.0223967 0.395598 86 63 46
0.0513054 0.0351956 0.352637 75 54 39
0.10693 0.0230012 0.443895 77 65 45
0.00934183 0.0440146 0.345241 74 56 40
-0.0201676 0.0487853 0.389777 150 127 112
0.0612674 0.0358921 0.334755 70 54 40
0.0299635 0.0424761 0.31278 96 75 48
0.116583 0.028626 0.389635 126 103 90
0.110762 0.0288127 0.432406 68 53 43
0.044555 0.0461147 0.267651 96 100 78
0.113379 0.0322277 0.427535 87 72 58
0.000946134 0.0593292 0.35764 167 124 100
0.097157 0.0413996 0.347199 122 100 84
0.0305246 0.054655 0.266806 124 116 97
0.106741 0.044475 0.368568 125 100 95
0.106979 0.0454416 0.363241 126 92 85
0.0325033 0.0595664 0.273565 108 111 88
0.102856 0.0481824 0.4429 39 19 13
0.0263503 0.065108 0.344101 60 30 23
0.0347127 0.0635427 0.335716 74 46 39
0.1047 0.0521655 0.447306 98 84 67
0.113129 0.055071 0.420608 34 17 7
0.0790789 0.0616353 0.353879 25 4 0
0.101152 0.0627954 0.375585 30 8 4
0.0800747 0.068316 0.358518 95 66 56
0.0988088 0.0712348 0.451874 40 18 8
0.0224383 0.0879642 0.373772 32 6 2
0.0596924 0.0773314 0.349322 49 22 17
0.0956922 0.0723719 0.389801 104 84 79
0.0974084 0.0725959 0.383193 36 12 6
0.0848005 0.0738838 0.353908 112 87 82
0.0937946 0.0847308 0.463547 89 67 50
0.0487937 0.0887307 0.365425 52 17 7
0.0542573 0.11974 0.386545 58 20 12
0.0512985 0.122684 0.389631 112 80 73
0.0835001 0.12269 0.418083 116 91 89
-0.081152 -0.0994567 0.333206 126 123 77
0.121386 -0.0573318 0.348115 60 68 46
0.0860482 -0.0335341 0.269129 114 111 68
-0.00765946 -0.0335387 0.363278 82 82 60
-0.0536488 -0.0252465 0.405663 144 140 98
0.00504629 -0.0234253 0.36928 84 84 54
0.131595 -0.0395206 0.411483 82 83 46
-0.0230059 -0.0141329 0.360571 148 140 96
-0.0440867 -0.00758883 0.383102 48 26 8
-0.0404335 -0.00797782 0.388309 132 122 77
0.0528424 -0.0104498 0.370555 146 151 109
0.0785108 -0.0206996 0.45999 76 74 36
0.0326412 -0.0147379 0.473553 166 158 118
0.0359845 -0.0144818 0.476848 161 144 102
0.0129246 0.00221534 0.359198 34 32 10
-0.0441384 0.00595273 0.426646 144 135 86
0.063128 -0.0119716 0.468739 92 72 54
0.0893323 -0.00509569 0.445165 82 66 36
-0.0395921 0.0258911 0.366748 122 94 70
0.103456 -0.00117153 0.446072 120 96 80
-0.020085 0.0339823 0.376154 142 124 102
0.110792 0.0116314 0.404719 88 70 61
0.122203 0.0107651 0.400882 110 86 62
0.0277922 0.0354082 0.307221 130 90 63
0.121735 0.0208697 0.40818 73 57 39
0.0412666 0.0404851 0.277501 98 98 69
0.0451125 0.0398856 0.340858 15 8 4
0.11898 0.0248913 0.412835 140 133 120
0.117201 0.028868 0.387522 110 86 76
0.0531793 0.0431222 0.339899 18 6 0
0.101343 0.0338453 0.433147 124 103 91
0.107793 0.0357384 0.409035 51 30 25
-0.0099446 0.0611203 0.363484 116 92 73
0.106198 0.0382296 0.437157 28 13 6
0.0402889 0.0560755 0.267917 71 82 60
0.114619 0.04532 0.415321 42 22 14
0.0311059 0.0625442 0.258653 134 124 104
0.106902 0.0512178 0.441001 101 88 72
0.0395692 0.0618022 0.255723 104 106 86
0.10328 0.0541685 0.420701 85 67 60
0.104602 0.0553829 0.414732 25 9 5
0.0945706 0.060873 0.463898 28 12 2
0.0994723 0.0622846 0.38227 92 68 65
0.0360055 0.0808994 0.361723 40 8 4
0.0317498 0.085116 0.361348 32 6 2
0.0174713 0.0964815 0.382276 40 5 0
-0.00516668 0.104572 0.40241 143 116 100
0.0967293 0.0801246 0.389129 90 62 56
0.0970078 0.0862084 0.452803 45 18 10
0.0174186 0.101189 0.383583 120 87 78
0.0755663 0.0943281 0.376969 118 100 95
0.0508359 0.125255 0.394188 52 15 8
0.0792404 0.128278 0.446734 121 101 98
0.0900089 0.123609 0.425152 74 51 50
0.0792615 0.131527 0.421651 58 32 26
0.0543033 0.137969 0.40341 104 56 43
0.0597912 0.142379 0.408607 102 64 50
0.170209 -0.0948941 0.344187 132 134 86
0.11645 -0.0588451 0.356202 64 72 46
0.077906 -0.0351031 0.279226 104 100 58
0.0918991 -0.0364408 0.363319 58 64 43
-0.0210373 -0.0223119 0.369625 144 140 96
0.0856389 -0.0299829 0.365052 53 56 39
-0.0133291 -0.0160303 0.375016 74 74 46
-0.0425916 -0.00751398 0.386673 82 67 36
-0.0503378 -0.00854824 0.399176 106 94 56
0.00297365 -0.00603712 0.352694 40 38 14
0.00525974 0.00014089 0.323975 78 54 24
0.0355006 -0.0162688 0.466072 110 86 55
0.0816231 -0.0200981 0.450843 137 138 100
0.0299985 -0.0157896 0.47763 158 147 112
0.0436489 0.00319691 0.32019 68 70 29
-0.0527789 0.00616745 0.436432 146 138 82
-0.000444917 0.011555 0.336666 142 138 84
0.138485 -0.00342637 0.342307 84 67 34
0.0259432 0.0214547 0.296166 128 101 78
-0.0228602 0.0288863 0.384704 96 76 54
-0.0278175 0.0345441 0.38455 122 105 82
0.103916 0.0120867 0.419231 103 82 74
-0.0378744 0.0432995 0.377947 117 83 52
0.110893 0.0216109 0.388799 126 88 73
0.0239728 0.0414523 0.324808 83 60 37
-0.0215325 0.0487245 0.391142 143 120 105
0.0120578 0.0486934 0.354107 69 48 34
0.116593 0.0288887 0.389388 96 71 59
0.104281 0.0320332 0.446773 69 47 34
0.103683 0.0359089 0.447451 129 116 106
-0.00921801 0.0609519 0.362401 148 128 110
0.101431 0.0391871 0.446974 30 16 8
0.0390186 0.0552783 0.263636 88 89 68
0.103265 0.0452139 0.338519 128 104 88
0.101017 0.0468507 0.448786 90 72 62
0.0286027 0.0636081 0.345555 132 84 70
0.105686 0.0532625 0.415275 74 55 49
0.100696 0.0557018 0.455687 54 37 22
0.10319 0.0556691 0.416835 40 22 16
0.0975818 0.0670579 0.457655 126 114 102
0.107162 0.0607282 0.363098 40 19 15
0.0798777 0.0684156 0.358688 95 66 56
0.0160814 0.0857225 0.373101 32 6 1
0.0972292 0.0717228 0.453552 32 16 10
0.0603842 0.0750311 0.345096 86 52 44
0.10438 0.0727048 0.423125 34 18 11
0.0235697 0.0939879 0.373447 48 8 2
0.00501496 0.10071 0.388255 150 128 112
0.0479724 0.0884877 0.368555 110 76 65
0.0983708 0.0829498 0.453455 100 82 64
0.0964453 0.0861957 0.452143 55 28 21
0.0139674 0.10227 0.387477 112 76 68
0.0467861 0.0890252 0.233677 113 102 80
0.038 0.0926155 0.239642 136 124 106
0.0989767 0.114664 0.429749 92 68 62
0.0482083 0.142281 0.402563 108 60 42
0.0548226 0.145162 0.41646 114 74 60
0.0889182 -0.155048 0.43305 66 76 36
0.0896412 -0.0364979 0.26327 104 100 58
0.0711808 -0.0410703 0.387426 146 151 110
-0.0208651 -0.021983 0.369791 136 133 91
-0.0109023 -0.0255573 0.386742 79 76 46
0.133323 -0.0385249 0.405696 86 82 50
-0.042763 -0.0156219 0.380036 150 143 92
0.00662198 -0.00555874 0.348524 48 45 18
-0.0377316 -0.000350777 0.370554 111 93 52
-0.0148489 0.00576191 0.389053 145 138 80
0.00227006 0.01152 0.333817 146 141 86
0.0512515 -0.0101141 0.481283 86 61 34
0.012201 0.0105347 0.34863 133 130 78
0.052179 0.0198061 0.269491 130 106 84
-0.021436 0.0247566 0.384043 114 100 80
-0.0226755 0.0283779 0.384652 73 54 31
-0.0274244 0.0338034 0.384497 70 54 30
0.10364 0.0150616 0.418281 17 7 1
-0.0221253 0.0489352 0.390998 78 60 48
0.0305915 0.0428816 0.311567 136 106 77
0.0992935 0.0348204 0.434633 58 36 26
0.113403 0.0403534 0.389013 111 81 73
0.0990745 0.0456145 0.370932 74 35 23
0.104134 0.0582076 0.438245 48 26 18
0.102515 0.0610474 0.376179 86 60 56
0.101363 0.0701313 0.44304 33 15 10
0.0995288 0.0826574 0.450386 84 61 44
0.0319984 0.0930425 0.369025 40 9 0
0.0178446 0.10124 0.382932 116 86 76
0.0239632 0.0952206 0.25798 68 64 40
0.127458 0.0772902 0.331925 45 22 20
0.0225312 0.0953602 0.238328 106 98 78
0.0540677 0.0861654 0.228698 86 78 52
0.087429 0.110894 0.415379 40 16 12
0.087937 0.126171 0.443063 80 54 44
0.0467386 0.138571 0.40445 140 96 80
-0.105631 -0.0265936 0.409156 58 45 8
-0.098208 -0.0201009 0.394806 90 67 21
-0.0452086 -0.00717414 0.390415 145 134 84
-0.00294697 -0.00641736 0.358579 49 46 21
0.0332521 -0.0147072 0.458777 77 58 38
0.108618 -0.00894095 0.412408 86 80 47
0.0973222 -0.00368873 0.461655 128 99 88
0.0197476 0.0242766 0.303901 142 112 88
0.00423812 0.0230052 0.35411 108 94 74
-0.0117064 0.0325863 0.366757 92 75 52
0.110494 0.0120557 0.413902 95 68 40
0.112322 0.0202562 0.422496 89 66 52
0.132385 0.0189481 0.389502 148 148 132
0.0112845 0.0437855 0.338148 99 70 44
0.0392951 0.0395589 0.348113 14 7 2
-0.0136712 0.0607671 0.374041 156 108 76
0.105411 0.0429492 0.380048 49 28 21
0.0599703 0.0675647 0.339435 64 33 26
0.106301 0.0633744 0.435706 92 72 60
0.0349645 0.0905497 0.35963 40 9 2
0.00149834 0.102905 0.391852 146 130 114
0.0741573 0.0956721 0.377795 61 26 20
0.093617 0.0944423 0.402115 47 18 15
0.0546587 0.119387 0.41828 86 52 46
0.0337665 0.134193 0.391878 96 65 61
0.078237 0.120154 0.385964 92 64 60
0.0514003 -0.0879487 0.410638 121 127 85
-0.113843 -0.0340071 0.429742 152 150 95
-0.0471 -0.0157228 0.381484 150 146 82
0.0289 -0.024298 0.425028 156 160 109
0.0309667 -0.00589222 0.318588 42 39 18
-0.00223413 -0.00345749 0.351163 150 142 80
0.0503801 -0.012079 0.373804 120 127 86
0.0822364 -0.0190874 0.448112 140 145 106
-0.0288311 0.0129046 0.346098 151 140 85
0.0148381 0.0101404 0.316411 144 137 78
-0.141987 0.031125 0.372601 160 150 126
0.00737029 0.0163696 0.319602 35 36 18
0.00588386 0.0182351 0.344438 42 44 21
0.108821 0.00689582 0.417687 60 31 12
0.00730363 0.0415788 0.321971 103 105 80
0.0531826 0.041693 0.34052 18 10 6
0.109256 0.0373846 0.32595 47 30 13
0.100941 0.0388436 0.446578 44 28 18
0.0992522 0.0407632 0.414948 134 100 88
0.0754495 0.0468924 0.35111 120 81 55
0.103915 0.0436815 0.337012 128 104 87
0.0942808 0.0777903 0.46569 89 59 39
0.0939905 0.0846268 0.465107 119 105 90
0.0268246 0.136921 0.4022 52 20 14
0.0802991 0.126052 0.423154 78 46 44
0.0521659 0.13929 0.39605 104 58 42
0.0918863 -0.0430529 0.26019 136 132 96
0.115218 -0.0345644 0.231132 96 92 54
0.111315 -0.0318955 0.236195 101 96 55
0.1095 -0.0535609 0.359949 68 72 48
-0.0209476 -0.0767998 0.5179 95 101 60
0.058282 -0.0419832 0.408832 145 148 114
0.127457 0.00653824 0.375499 74 42 19
0.0398702 0.0395823 0.286265 122 118 94
0.00927583 0.0513915 0.339275 103 58 32
0.105483 0.0358776 0.442417 138 126 114
0.102174 0.0411569 0.338944 126 106 90
0.108444 0.0465231 0.430269 31 11 4
0.0302998 0.0627561 0.259425 118 109 85
0.0905903 0.0526102 0.334316 56 24 10
0.101617 0.0537063 0.455312 140 132 117
0.10451 0.0632959 0.418152 108 88 78
0.0518354 0.07853 0.357794 116 88 81
0.0789865 0.0776358 0.364222 112 95 88
0.0763869 0.0936608 0.3757 122 103 97
0.0398655 0.0916154 0.239409 90 80 56
0.0732717 0.111577 0.389204 111 87 84
0.0872595 0.122853 0.449224 102 76 69
0.0814588 0.125275 0.419516 58 26 24
0.0572068 0.132025 0.392063 52 14 7
0.0922663 -0.0452222 0.288116 102 106 73
0.0911418 -0.0363943 0.364938 63 68 49
0.179207 0.00696522 0.157199 104 98 66
0.121516 0.008314 0.385117 110 79 63
0.0388175 0.0469186 0.273454 86 92 66
0.00606156 0.0542495 0.343942 133 96 72
0.0415491 0.054659 0.261879 89 91 68
0.10913 0.0463301 0.427793 54 31 24
0.0156247 0.0742285 0.357309 50 16 6
0.0819557 0.0597113 0.351992 108 84 77
0.029735 0.0720647 0.348724 93 48 34
0.0352043 0.0698231 0.251857 96 100 78
0.105663 0.065246 0.435371 106 88 78
0.0763143 0.0695176 0.364486 98 68 62
0.0768794 0.0781694 0.36724 108 91 85
0.0852122 0.123918 0.45313 94 68 61
0.0935178 -0.0445465 0.28607 98 102 72
0.088185 -0.0426456 0.297111 99 108 70
0.112755 -0.0524655 0.353668 63 67 40
0.0862408 -0.0393897 0.304308 101 108 74
0.0824559 -0.0315845 0.293043 86 88 78
0.0714092 -0.0297902 0.338733 145 151 111
0.0686088 -0.0401855 0.391445 144 148 113
0.0756537 -0.0234366 0.371904 61 64 46
0.0347568 -0.0163668 0.468974 108 86 49
0.0117514 0.0110628 0.358983 101 91 54
0.119432 0.00788224 0.390593 104 74 54
0.0196775 0.0443151 0.343274 103 78 60
0.0404286 0.0430659 0.296029 118 103 78
-0.000611584 0.0564472 0.350374 159 134 112
0.109043 0.0404835 0.436981 83 66 47
0.0373146 0.0553941 0.265794 91 94 71
0.108132 0.0521315 0.414159 94 73 63
0.103606 0.0643528 0.416448 40 18 14
0.0762599 0.0936787 0.378712 50 22 18
0.0754229 0.0942706 0.377254 114 94 88
0.0833944 0.0984693 0.416482 119 96 94
0.0416986 0.0916608 0.23588 133 121 102
0.0725521 0.109279 0.389274 110 78 72
0.0907308 -0.0425192 0.26144 150 148 100
0.109508 -0.0358506 0.238694 126 122 82
0.0918744 -0.0465191 0.286679 140 144 104
0.0798085 -0.0408859 0.313162 100 109 78
0.0620382 -0.0330154 0.352105 140 146 106
0.065434 -0.017642 0.476855 156 166 119
-0.00482453 0.0117477 0.333951 144 137 82
0.105962 0.00755242 0.426632 45 14 2
0.0391811 0.0405239 0.28004 105 104 76
0.111011 0.0373357 0.402674 24 10 2
0.0341518 0.0593157 0.272029 132 132 109
0.0271469 0.0636973 0.347024 114 66 52
0.104371 0.06536 0.440575 120 109 98
0.102712 0.0887295 0.378755 94 66 64
0.0452794 0.144585 0.410056 100 57 40
0.0976832 -0.0372515 0.252647 134 130 84
0.0624236 -0.0426221 0.402134 138 143 106
0.121994 -0.00103101 0.402164 115 87 76
0.0423542 0.0294882 0.294148 118 108 68
0.110049 0.0158246 0.404248 15 6 2
0.153668 0.0138636 0.315559 88 59 38
0.0407755 0.0413086 0.299849 117 86 57
0.111161 0.034885 0.376676 151 114 102
0.0402227 0.0584939 0.265556 123 119 96
0.0410142 0.0614618 0.253968 95 96 74
0.0383855 0.0909815 0.24315 88 80 54
0.0945103 0.093883 0.397901 44 21 19
-0.0442134 -0.00683041 0.38744 116 104 62
0.076643 -0.0202846 0.460971 110 112 74
0.0347997 0.040128 0.290564 58 64 38
0.0314711 0.0458224 0.273346 128 118 92
