ply
format ascii 1.0
element vertex 1273
property float x
property float y
property float z
property uchar red
property uchar green
property uchar blue
end_header
0.0986921 1.43327 3.33773 88 122 172
-0.152841 -0.846146 2.8795 125 102 130
-0.264412 -0.713631 2.8228 151 94 126
-0.0418329 -0.694238 3.0177 114 88 91
-0.0217911 -0.689081 3.00765 81 70 75
-0.0140764 -0.678114 3.00086 178 176 174
-0.100267 -0.628489 2.97686 202 206 206
0.0327856 -0.633743 3.00022 141 146 136
0.0691877 -0.524708 2.9264 210 215 220
0.166257 -0.517616 3.00661 184 186 189
0.181333 -0.520249 3.01484 197 202 194
-0.086793 -0.491441 2.92511 182 180 172
0.225404 -0.504179 3.04767 52 41 26
0.117798 -0.487764 2.97409 197 196 184
0.0878201 -0.468912 2.96396 179 186 182
-0.0338418 -0.455851 2.88583 194 190 182
0.0720162 -0.459597 2.97417 169 178 181
0.197334 -0.467366 3.01015 99 99 88
0.0631737 -0.436622 2.96093 138 149 152
-0.32443 -0.405069 2.85914 112 112 98
0.478973 -0.41708 3.0572 156 164 170
0.0930243 -0.332279 2.81921 92 100 119
0.17345 -0.353341 2.96769 38 51 97
0.535595 -0.387863 3.39109 214 222 214
0.140111 -0.330505 2.95661 172 180 196
0.191711 -0.335105 2.99264 120 132 146
0.113725 -0.303628 2.88799 131 136 131
0.355885 -0.312604 3.05258 76 40 40
0.380068 -0.321714 3.07706 117 78 94
0.195872 -0.300353 2.92307 157 164 166
-0.200802 -0.260789 2.74886 146 132 122
-0.0906998 -0.234225 2.76886 29 20 6
0.570235 -0.240299 3.15728 226 236 242
-0.0530978 -0.205923 2.73195 108 109 96
-0.0308757 -0.196968 2.77994 58 70 65
-0.0357168 -0.178206 2.7533 164 174 162
0.153535 -0.183867 2.81178 70 76 66
-0.262674 -0.0964573 2.80441 121 122 108
0.0132028 -0.0756996 2.7214 226 228 241
-0.0173782 -0.0106077 2.77493 149 156 156
0.376214 0.0141928 3.02362 127 136 134
-0.273086 0.024402 2.83727 55 72 76
0.483031 0.052676 3.29459 56 70 85
0.484445 0.0702237 3.25892 77 88 108
0.253342 0.0876228 2.92848 112 130 137
0.596802 0.0911595 2.9356 82 89 90
-0.120817 0.0883829 2.81688 30 24 18
-0.0872141 0.0912185 2.81085 180 189 184
0.0276513 0.159906 2.86377 144 164 170
0.0427373 0.42455 2.87871 100 118 120
0.0914926 0.433757 2.87592 106 120 126
0.497485 0.457846 2.90277 44 79 104
0.481183 0.460794 2.84775 196 210 210
0.240198 0.518593 2.95844 44 38 24
0.316623 0.545746 2.92856 78 70 62
0.455325 0.543598 2.86171 202 208 212
0.115881 0.738979 3.19907 139 131 126
0.13011 0.800125 3.08744 98 86 64
-0.137044 1.01395 3.12148 126 108 74
-0.184328 1.06419 3.19525 34 27 18
0.238808 1.21483 3.47902 140 148 150
0.0551483 1.25876 3.20757 88 111 146
0.0416909 1.28732 3.20563 65 94 140
0.0081852 1.31393 3.25941 70 96 138
-0.0372078 1.34525 3.21986 72 103 149
0.0987519 1.43185 3.33016 88 123 172
-0.00731958 -0.819442 2.89264 121 85 108
0.32021 -0.696694 2.8996 105 75 88
0.0269935 -0.640456 3.03237 131 138 126
0.337925 -0.576005 2.91396 154 124 158
-0.155959 -0.535295 2.93112 196 194 185
-0.317084 -0.523809 2.92756 99 96 79
-0.375042 -0.494853 2.92339 126 118 126
-0.078671 -0.494594 2.89932 172 172 164
0.173033 -0.507248 3.01767 72 74 70
-0.462641 -0.411396 2.92112 114 110 105
0.283472 -0.417101 3.01535 120 110 82
0.281755 -0.394888 3.04259 54 62 48
0.0308742 -0.324728 2.76555 237 242 246
0.210644 -0.341101 3.02074 75 80 96
0.543139 -0.370959 3.34495 201 208 205
0.157194 -0.246724 2.82426 108 108 98
0.369657 -0.262699 3.01397 116 111 93
-0.0945577 -0.236474 2.77778 39 27 13
-0.0391466 -0.182594 2.76302 170 181 170
-0.0344129 -0.163662 2.75653 120 129 114
-0.0890076 -0.0904976 2.70887 184 180 182
-0.143634 -0.0343971 2.71874 43 35 20
-0.362449 -0.0199494 2.82992 133 132 126
-0.0166504 -0.00975763 2.77675 143 150 150
0.0315613 0.0555398 2.80908 213 223 224
-0.202384 0.0594682 2.83724 72 76 66
0.0020713 0.0626594 2.80249 216 224 233
0.307872 0.071593 2.9783 172 186 189
0.545803 0.084751 3.18567 185 186 180
-0.00181524 0.120447 2.84811 30 44 52
0.0353499 0.15758 2.80846 142 163 172
0.398913 0.180469 2.88813 68 130 147
-0.143385 0.196676 2.82493 80 97 94
-0.108834 0.449814 2.86751 40 48 43
-0.00927189 0.441659 2.82096 59 71 60
-0.746822 0.547883 3.16296 88 69 50
-0.758081 0.604775 3.12051 153 146 142
-0.781019 0.735207 3.12086 66 60 38
0.110129 0.753939 3.14626 98 78 54
-0.493373 0.771288 3.10012 97 88 73
0.327319 0.97365 3.8956 93 88 98
0.172634 0.869444 3.14116 151 144 130
0.15683 0.945361 3.0775 144 134 116
-0.0809331 0.959457 3.12095 102 87 54
-0.135038 1.00743 3.12799 114 96 60
-0.00320724 1.08772 3.16754 63 48 21
0.0110966 1.09276 3.12421 78 68 32
0.265957 1.21949 3.51928 89 98 108
-0.0418256 1.14294 3.12005 96 102 109
-0.488585 1.28283 3.21681 62 98 142
0.236966 -0.786077 2.89605 132 89 116
-0.12342 -0.672444 3.01534 178 190 190
0.031061 -0.629953 2.99608 144 146 137
0.307082 -0.605399 2.92613 128 95 114
0.0431875 -0.590615 2.96516 102 92 80
-0.0511916 -0.523313 2.91328 198 200 204
0.169752 -0.511619 2.98795 134 135 137
-0.356144 -0.489791 2.89295 140 142 146
-0.0740088 -0.497771 2.91006 123 120 114
-0.0974585 -0.461206 2.80349 125 123 125
0.140986 -0.477775 2.979 58 60 44
0.499154 -0.512808 3.2478 224 226 228
0.186621 -0.452091 3.00882 211 212 216
0.205615 -0.444688 2.98763 52 53 38
-0.44615 -0.422104 2.91893 106 100 98
-0.457504 -0.411707 2.90488 109 99 98
0.147708 -0.359996 2.99248 96 124 170
0.318184 -0.347401 3.09084 216 214 200
-0.242151 -0.286013 2.76851 172 168 163
0.32264 -0.315539 3.05491 80 87 80
0.170424 -0.248986 2.83919 205 200 199
0.0630239 -0.225072 2.79225 50 42 16
0.375921 -0.238327 3.02858 92 86 76
0.0111829 -0.209059 2.78268 218 228 216
-0.0589247 -0.198646 2.76072 174 178 172
0.599397 -0.201627 3.23263 174 146 148
-0.0636418 -0.0176949 2.74913 116 108 99
-0.00177837 0.0647083 2.83041 231 236 244
-0.172788 0.0702136 2.79322 76 78 73
0.330267 0.0749784 2.98493 59 71 75
-0.14985 0.0991062 2.83176 80 91 100
-0.145358 0.141564 2.83127 98 112 120
-0.0180497 0.15279 2.83558 124 142 149
0.150323 0.151167 2.89073 136 156 162
0.143839 0.198671 2.8891 60 75 78
-0.243561 0.252944 2.83811 62 74 78
-0.200137 0.389166 2.74737 93 104 96
0.220995 0.411252 2.8439 124 114 100
0.0551337 0.413711 2.84245 22 24 16
0.0961417 0.431272 2.86103 113 128 136
-0.0708738 0.452784 2.81571 122 136 141
-0.630838 0.619553 3.14973 44 45 41
-0.785852 0.73241 3.12906 78 70 48
0.181679 0.878613 3.092 190 186 183
0.0952965 1.26421 3.31213 72 93 126
0.094332 1.44739 3.36769 81 116 163
-0.189788 -0.841535 2.91194 102 70 98
-0.324398 -0.663834 2.84612 132 80 116
-0.0350331 -0.683165 3.04198 134 142 138
-0.0891272 -0.66123 3.02249 69 78 62
-0.19202 -0.581656 2.91275 135 127 119
-0.269022 -0.473821 2.9183 140 140 142
0.0651937 -0.477611 2.98516 146 155 138
0.503414 -0.522888 3.32601 218 222 224
-0.0931013 -0.41548 2.75044 41 31 35
0.192826 -0.434578 3.00098 170 168 162
-0.548313 -0.314475 2.90377 46 32 20
0.267265 -0.312361 2.97166 192 194 202
0.324484 -0.317292 3.05258 124 126 120
-0.137999 -0.240717 2.73891 180 186 176
0.178959 -0.25416 2.87301 201 196 199
0.297912 -0.250882 2.92671 148 134 132
0.373436 -0.245267 3.06371 77 71 59
0.558009 -0.245735 3.31304 176 160 169
-0.0645775 -0.0173375 2.7475 112 105 95
0.00806172 -0.0107718 2.79298 140 146 148
-0.404546 0.0333425 2.86702 99 106 103
0.306286 0.0647216 2.99045 192 204 206
0.25593 0.0725828 2.92713 170 182 177
0.38038 0.0840968 3.16458 96 110 120
-0.363104 0.140389 2.81529 87 102 111
-0.0857211 0.378569 2.77565 66 68 71
0.0919845 0.441368 2.92115 115 128 136
0.479517 0.434539 2.82169 34 92 131
0.454893 0.540759 2.86 202 208 212
-0.707224 0.662949 3.09062 86 79 67
0.0931101 0.764276 3.17717 86 68 38
0.0811917 0.791436 3.14243 110 103 70
0.120059 0.813419 3.09671 86 72 47
0.070588 0.866817 3.08112 128 116 82
-0.441496 0.945985 3.15862 80 68 42
0.132803 1.157 3.28545 140 136 110
0.0330366 1.14911 3.19618 132 127 94
-0.0810744 1.20691 3.34287 84 87 100
0.0326412 1.27188 3.12901 78 109 157
0.0919767 1.42961 3.34236 66 102 149
-0.272625 -0.584742 2.9296 163 172 156
0.0844391 -0.59362 2.96365 160 156 161
-0.273262 -0.534855 2.93686 192 192 209
-0.200713 -0.5352 2.93424 166 170 179
-0.109787 -0.527161 2.88535 130 122 118
-0.32707 -0.522971 2.93831 106 102 92
-0.363969 -0.515715 2.95181 86 66 78
-0.17662 -0.508093 2.91185 136 138 132
-0.36045 -0.420335 2.91257 146 150 156
0.2784 -0.397636 3.0509 114 125 114
-0.312615 -0.345948 2.82066 164 155 154
0.497524 -0.345609 3.09828 132 140 120
-0.225407 -0.264443 2.76991 68 62 36
-0.193962 -0.263722 2.7462 173 160 156
-0.154144 -0.244171 2.76256 210 214 217
-0.0774905 -0.226994 2.76374 114 106 86
0.0542166 -0.225777 2.80433 90 88 59
-0.27693 -0.103392 2.75127 176 190 183
-0.760997 -0.107267 3.15861 134 117 102
-0.0242556 -0.048912 2.71185 212 216 221
-0.436342 -0.0126639 2.87598 104 102 94
-0.0827505 0.0611362 2.75287 179 181 186
0.543396 0.075167 3.16439 208 200 187
-0.131705 0.0825763 2.83478 30 21 12
0.592703 0.0909602 2.99072 118 132 128
-0.111259 0.124631 2.83696 108 128 142
-0.891846 0.161817 3.59622 142 123 98
-0.0259199 0.181954 2.82059 142 163 172
-0.21191 0.328605 2.77557 67 72 68
0.223675 0.410368 2.83138 122 113 100
0.301229 0.449154 2.83247 50 42 38
0.245672 0.468391 2.89057 82 74 62
0.237725 0.50699 2.93149 86 81 67
0.0967693 0.764438 3.18975 89 70 43
-1.2216 0.944878 3.57595 118 112 100
-0.152844 1.09616 3.20709 99 101 93
-0.477858 1.09804 3.14751 52 80 118
-0.223612 1.26475 3.31601 68 82 111
0.0579027 1.25276 3.21214 54 76 114
0.0348245 1.26874 3.12559 78 108 156
0.055428 -1.3683 3.41882 136 92 111
0.115353 -1.36534 3.4827 152 118 148
-0.231114 -0.684681 2.85438 140 86 112
-0.224741 -0.673195 2.90829 158 103 126
-0.0527821 -0.692066 3.01659 74 51 50
0.139469 -0.504422 2.98108 196 197 196
0.192998 -0.462873 3.02819 164 170 162
0.375256 -0.269596 3.09281 126 125 106
0.0418357 -0.241663 2.78529 176 184 161
-0.0301598 -0.198499 2.7734 42 52 37
0.122375 -0.175529 2.82248 160 168 163
0.118937 -0.144943 2.7995 156 158 156
0.521032 0.00119374 3.3615 146 134 132
0.142924 0.00775336 2.8807 128 129 122
0.488867 0.0253818 3.39155 170 174 166
0.164114 0.0407518 2.91346 102 104 108
-0.0719633 0.0981099 2.80952 46 63 68
0.618644 0.203796 2.90351 91 109 116
0.444687 0.434812 2.78013 154 172 178
-0.658386 0.624161 3.11946 132 138 138
-0.636024 0.626024 3.15179 72 74 74
-0.694696 0.669826 3.07958 63 58 44
0.0985355 0.695805 3.15819 172 160 118
-0.672449 0.679917 3.08062 162 162 152
-0.675708 0.697821 3.09448 59 66 52
0.156437 0.947465 3.08502 112 107 80
-0.135817 -0.680881 2.96892 92 52 68
0.0440941 -0.584504 2.96532 98 94 82
0.195977 -0.472834 3.02748 104 112 100
0.085358 -0.454355 2.95591 98 108 125
0.272887 -0.436202 3.01722 97 86 73
0.196568 -0.407532 3.01837 135 144 146
-0.537752 -0.37159 2.95249 61 52 46
0.3468 -0.302515 3.0886 144 144 135
-0.00823931 0.0407802 2.80133 234 244 254
-0.170863 0.0706268 2.77415 82 86 80
0.618082 0.205919 2.90977 90 109 116
0.433106 0.49106 2.79279 144 140 140
-0.258316 0.891326 3.06503 102 98 72
-0.483037 1.29041 3.22436 54 88 126
0.125531 -0.651554 2.99975 64 41 48
0.136351 -0.509004 2.99464 162 166 165
0.393627 -0.486171 3.05065 119 77 90
0.150295 -0.365837 3.01216 93 108 148
0.302881 -0.309911 3.04353 204 212 213
0.17347 -0.249709 2.84032 192 190 190
0.0153571 -0.0125324 2.74005 62 68 64
-0.655111 0.00622112 3.04585 138 127 114
0.478906 0.0236448 3.2891 118 123 116
-0.568681 0.437344 3.12535 122 120 110
0.312914 1.15771 3.61393 75 79 82
0.0384282 -1.39168 3.43193 110 75 68
-0.184897 -0.818479 2.8446 146 116 142
-0.321362 -0.51986 2.93401 26 27 18
-0.397242 -0.39918 2.91493 52 52 40
0.432214 -0.425281 3.14654 199 186 190
0.187584 -0.315921 2.98013 165 176 176
0.384071 -0.259438 3.06304 125 122 99
-0.385374 -0.00918591 2.85225 106 108 102
-0.658524 0.00454277 3.04905 140 129 116
0.127266 0.053499 2.90975 58 68 68
-0.130351 0.17861 2.79915 38 50 50
0.0572278 0.424037 2.88504 13 18 12
0.374484 0.45863 2.74018 172 168 168
-0.637416 0.6233 3.16333 86 88 87
-0.774981 0.749293 3.14381 76 70 54
0.156246 0.947502 3.0851 123 117 92
0.102511 0.663625 1.54714 78 95 118
0.127252 -1.38469 3.47236 100 86 86
0.194122 -0.558297 3.02057 54 41 24
-0.114629 -0.47489 2.92074 108 106 104
0.123515 -0.300535 2.85919 122 125 122
0.229499 -0.281099 2.96123 90 98 96
-0.0483714 -0.0728633 2.70025 182 184 188
-0.0374322 -0.0396239 2.71056 189 188 193
-0.656305 0.00764805 3.03497 146 134 122
0.47731 0.453673 2.81948 140 169 180
0.373444 0.45062 2.75297 166 164 168
0.2635 1.18016 3.50222 60 63 65
0.128742 -1.33499 3.48683 116 51 68
0.197987 -0.401827 2.9617 126 127 138
0.507286 -0.305609 3.31298 169 158 156
-0.00803135 -0.0143973 2.75525 154 161 160
-0.484955 0.0151339 2.9278 29 33 30
0.307021 0.0688601 2.96994 171 185 188
-0.188505 0.0712476 2.80528 54 64 60
-0.138639 0.199209 2.8017 78 97 96
0.0248126 0.416577 2.94083 104 132 130
0.0453434 0.432858 2.91159 73 60 48
-0.745487 0.658979 3.09338 146 143 139
-0.294703 -0.557284 2.91817 109 96 94
0.535506 -0.554155 3.20899 164 150 128
0.178202 -0.504393 2.99226 126 130 122
-0.0719976 -0.223215 2.75316 88 80 58
-0.173539 -0.212272 2.76468 48 59 44
0.106583 -0.171896 2.80827 46 51 46
-0.322271 -0.00386844 2.84249 167 182 172
0.171404 0.0111045 2.88056 42 41 32
-0.260301 0.0401853 2.83687 56 63 66
0.00170381 0.0973711 2.82944 64 75 80
0.616904 0.203788 2.91705 90 111 121
0.00686137 0.319532 2.8466 85 114 131
0.0161163 -0.653549 2.95925 118 126 116
-0.217559 -0.0450722 2.78973 36 32 18
-0.368029 0.181039 2.84466 92 106 113
0.617066 0.197929 2.92774 94 114 122
-0.144442 0.299923 2.82929 85 98 100
0.564278 0.354198 2.87485 170 173 166
0.16586 0.467245 2.91436 50 36 23
-0.142754 1.04774 3.20912 36 26 10
-0.510445 1.0577 3.16338 119 115 96
0.0585697 -0.623046 2.97912 134 132 112
-0.302236 -0.545238 2.92062 135 138 127
0.0815267 -0.456803 2.97322 83 93 104
0.355683 -0.436387 3.59657 163 164 142
-0.237886 -0.285774 2.76592 156 146 135
0.620323 -0.333947 3.40442 120 122 116
0.368728 -0.275079 3.09555 118 118 96
0.526416 -0.0131912 3.33312 42 26 35
0.266521 0.0769399 2.94469 154 170 162
0.192968 -0.4621 3.02566 168 174 166
0.361933 -0.308515 3.05609 101 84 76
0.618989 -0.335379 3.41406 128 133 126
0.575592 -0.268023 3.4355 204 202 204
-0.0792009 -0.210735 2.76938 79 76 56
-0.0134537 0.0381218 2.81669 225 234 246
-0.125715 0.44516 2.86374 46 52 46
0.368938 0.464473 2.74829 136 128 128
-0.269946 -0.65888 2.84894 122 74 102
0.0139822 -0.484975 2.97746 179 186 174
0.147324 -0.349931 2.99083 112 132 176
0.175398 -0.321933 3.01196 166 177 176
-0.198719 -0.158329 2.76056 163 162 162
0.424589 0.0840616 2.44445 126 130 123
0.61206 0.0957143 3.009 136 135 130
0.0379149 0.154213 2.82517 138 156 164
0.582938 -0.354942 3.4055 138 135 115
-0.241936 0.0435879 2.83613 86 88 89
-0.325046 -0.506552 2.92808 26 26 26
-0.035312 -0.196657 2.75351 102 112 102
-0.362752 0.010353 2.8095 78 84 86
-0.0855895 -0.657824 3.00507 46 54 34
0.312188 0.224974 2.79389 70 90 94
-0.0176986 0.335941 2.81828 128 144 154
0.742629 -0.634482 3.48698 215 212 206
0.172194 -0.358202 2.93787 30 45 79
0.318319 -0.340832 3.06864 186 198 188
0.0531943 0.0700995 2.87521 100 114 108
0.225121 0.407752 2.83789 110 104 92
0.160163 -0.581131 2.99754 108 102 88
-0.0461919 -0.525558 2.90869 182 187 188
0.158797 -0.0576117 2.81628 202 212 218
0.363732 0.0474647 2.98746 60 70 70
0.184258 -0.471428 2.9965 144 150 144
0.537378 -0.198231 3.14855 74 29 56
0.041113 0.0700653 2.8653 72 88 86
0.444556 -0.385157 3.05276 83 52 64
0.230414 -0.339688 3.01275 166 173 162
0.384399 -0.280427 3.07817 81 68 56
0.383393 -0.223378 3.02455 105 106 98
0.134522 -0.287744 2.84787 103 106 102
0.172056 -0.0635261 2.83198 146 152 145
0.0378794 -0.637757 3.005 112 118 98
-0.118242 -0.494857 2.93155 175 181 178
-0.0704824 -0.440753 2.86557 46 38 28
0.270359 -0.419151 3.03555 170 178 164
-0.208404 -0.0675982 2.77841 74 66 47
0.0102688 0.31014 2.84241 98 126 146
0.419048 0.440242 2.76724 90 98 84
-0.176339 -0.815251 2.82222 108 82 104
0.467151 -0.415971 3.01539 186 192 190
0.188544 -0.403934 3.02362 30 36 48
0.217873 -0.389537 2.99285 119 126 125
0.419312 -0.151365 2.98808 212 214 214
0.585583 -0.0350736 3.35998 88 65 80
0.445532 0.443411 2.78222 142 158 154
-0.14234 -0.659637 3.00234 104 116 114
-0.3271 -0.516548 2.93823 71 72 66
0.0856892 -0.465146 2.99552 152 157 162
0.296155 -0.322064 3.02224 200 203 212
0.158254 -0.059697 2.84617 142 152 148
0.127974 0.159255 2.81911 106 132 140
-0.207196 -0.649691 2.92798 99 82 87
-0.299772 -0.557973 2.8973 130 106 112
0.0493484 -0.445296 2.84466 167 175 164
0.0895773 -0.392535 2.87677 47 59 68
-0.463132 -0.000777541 2.8905 60 56 51
-0.397246 -0.00610106 2.8616 52 56 51
-0.0978035 0.0267231 2.77982 168 164 168
-0.0152918 0.0401917 2.81349 219 230 242
-0.302659 -0.463445 2.92275 56 58 58
-0.000361489 -0.442105 2.89924 133 132 130
0.198236 -0.456832 3.01939 164 170 160
0.330864 -0.315508 3.05705 68 74 64
0.350377 -0.307883 3.09419 152 136 130
0.382385 -0.285331 3.07098 76 63 54
0.542648 -0.20473 3.11177 150 106 135
0.406309 -0.193401 3.02385 146 142 148
0.0231936 0.249311 2.82535 108 132 146
-0.176523 -0.597264 2.9643 166 166 166
0.200552 -0.463711 3.01798 152 158 148
0.0328657 -0.323635 2.74431 226 232 238
-0.230264 -0.149125 2.75187 140 148 140
0.109861 -0.182135 1.7164 71 68 71
0.54943 -0.346454 3.3433 58 59 38
-0.020035 0.348119 2.82724 126 146 158
-0.0978273 0.402511 2.77183 122 138 139
-1.22195 0.679726 3.65676 108 100 88
-0.106574 -0.571094 2.84579 182 190 192
-0.118427 -0.47109 2.94354 124 126 124
0.511531 -0.257501 3.09708 168 140 155
-0.0241889 0.349757 2.8337 126 144 154
0.417786 0.443403 2.76761 89 93 82
0.188758 1.11094 3.36765 48 46 47
-0.17695 -0.601785 2.91252 138 133 132
-0.273216 -0.600816 2.94312 180 176 170
0.0817061 -0.344043 2.87288 83 89 108
0.188428 1.1072 3.35386 55 55 52
-0.0109917 -0.875124 2.89137 173 132 156
-0.016456 -0.0876215 2.70139 150 144 139
0.00187847 0.0626262 2.87995 204 214 220
0.00432611 -0.640033 3.03618 138 146 143
-0.273514 -0.485122 2.91267 138 142 141
0.00714956 -0.00911889 2.7874 104 112 114
-0.289786 0.302525 2.82461 80 96 102
-0.475095 0.756979 3.09457 131 134 131
0.189192 -0.487098 3.00632 118 127 114
-0.229464 -0.156057 2.76364 134 142 139
-0.823946 -0.139374 3.19365 71 54 40
0.321513 0.0805909 1.65099 103 123 121
0.476971 0.445084 2.78224 177 187 182
-0.177207 -0.815351 2.83391 123 97 124
0.294183 -0.458237 2.99794 89 56 64
0.528485 -0.42016 3.35673 104 118 109
0.536306 -0.406403 3.39607 118 130 116
0.370315 -0.239298 3.02194 130 131 122
0.486549 -0.233822 3.12062 85 48 68
0.0052417 -0.209813 2.81401 214 224 213
0.479721 0.11138 3.1759 50 58 70
0.423836 0.317395 4.21 127 150 162
-0.0273155 0.304478 2.83006 70 86 96
0.536406 -0.389028 3.37812 208 220 212
0.578073 -0.373733 3.39242 154 154 138
-0.0552563 -0.0592363 2.71807 176 174 180
0.503763 0.00293267 3.34557 126 120 116
0.418334 -0.435908 3.10509 185 166 174
-0.733353 -0.400699 3.26428 88 70 58
-0.0976697 -0.0770541 2.71212 112 110 110
0.499623 -0.507537 3.28243 218 220 226
-0.731975 -0.426219 3.26049 46 32 14
0.370713 -0.240328 3.02316 140 138 133
-0.12523 -0.262674 2.75061 110 110 92
-0.168368 -0.142975 2.74896 144 144 141
0.055219 -0.396019 2.90099 162 172 175
-0.742455 -0.43111 3.27087 60 45 26
-0.0306935 -0.0419041 2.72985 204 208 220
-0.256205 -0.473524 2.90093 38 45 57
-0.126244 -0.441037 2.95726 22 18 16
-0.735329 -0.39416 3.2346 90 72 58
0.45347 -0.260493 2.62143 150 156 146
-0.10379 -0.245444 2.75319 55 46 30
0.270333 0.192704 2.91703 54 68 69
0.206129 -0.500455 3.00838 175 176 174
0.0933692 -0.445573 2.96849 76 85 122
0.474183 -0.369608 3.10578 222 218 224
0.134082 -0.284221 2.84828 104 108 110
0.354736 -0.277678 3.11558 176 188 178
-0.0375753 -0.201311 2.74002 116 129 129
-0.645696 0.00180081 3.02477 68 62 54
0.007138 0.455443 2.89594 85 103 108
0.375502 0.471431 2.72739 118 120 126
0.288977 1.03623 3.18384 68 74 80
-0.149015 1.05695 3.19489 34 26 13
-0.297094 -0.706166 2.79915 134 90 120
0.362376 -0.244364 2.98804 161 158 152
0.513754 0.0985355 3.0744 96 100 108
0.254703 0.104085 2.95153 72 94 102
0.355328 0.191642 2.90465 84 115 120
0.134058 0.568949 3.22835 52 46 32
-0.01784 -0.866496 2.9002 150 106 135
0.299134 -0.486533 2.97713 127 94 102
0.328006 -0.4415 2.99979 99 62 78
-0.104747 -0.252082 2.77058 54 46 30
0.0362539 0.452295 3.00291 46 52 49
0.253294 0.45096 2.84284 62 55 40
0.341193 -0.338976 3.08192 97 65 62
0.375673 -0.278478 3.03902 96 84 70
0.360247 0.0370953 2.96859 54 65 71
-0.646628 0.646069 3.06559 87 95 91
-0.159426 1.09748 3.23652 96 96 93
0.165365 -0.483508 2.99393 207 212 218
0.426732 -0.445668 3.05129 190 188 187
0.137071 -0.363376 3.00223 44 62 96
0.54832 -0.237646 3.11787 186 190 185
-0.820676 -0.175231 3.17588 110 90 74
-0.104351 0.456423 2.85953 62 68 63
0.191246 0.905104 3.20261 176 182 170
-0.0028889 -0.882618 2.87378 127 84 108
0.244013 -0.328343 3.00185 164 172 166
0.479935 0.0565727 3.25766 60 76 84
0.402204 0.526327 2.83854 107 110 102
0.456335 0.538043 2.8591 186 193 202
0.285155 1.04132 3.21777 56 61 66
0.00597688 -0.845895 2.96989 58 36 44
0.501451 -0.452421 3.30257 206 215 230
0.373726 0.038104 3.07965 88 100 108
0.344561 -0.115804 2.87606 247 249 255
-0.124129 0.485517 2.968 104 108 95
-0.719564 0.712596 3.08957 134 130 123
-0.0287175 -0.917828 2.87687 123 84 97
-0.255302 -0.852905 2.90235 133 108 98
-0.18706 -0.807288 2.79619 78 38 64
-0.160231 -0.810241 2.83766 78 46 76
0.287786 -0.695266 2.90373 90 45 63
0.0302933 -0.641323 3.0625 156 163 150
0.22537 -0.504185 3.03727 54 38 31
0.0946951 -0.486062 2.99823 92 90 78
0.146626 -0.445376 3.0152 63 67 86
0.203761 -0.425038 3.02542 229 230 232
0.124748 -0.325114 2.91299 128 126 127
0.109103 -0.310999 2.84393 168 172 172
-0.0300669 -0.207547 2.75286 85 95 90
0.005921 -0.208698 2.802 216 225 218
0.314018 -0.202666 2.8243 149 141 140
0.480339 0.0514458 3.20688 52 66 76
0.311341 0.0747785 2.97573 149 164 168
0.600073 0.0890335 2.93199 114 116 116
-0.52894 0.23507 2.88932 78 84 90
0.467878 0.246192 2.81057 54 119 149
0.0286039 0.269407 1.61399 66 62 50
-0.156506 0.430599 2.77295 28 32 22
-0.135867 0.425073 2.74046 50 50 48
0.0806 0.510741 3.08592 90 78 56
-0.124148 -0.701414 2.95095 82 42 62
0.2025 -0.498667 2.98612 175 178 170
0.337536 -0.420927 3.02068 66 27 42
0.174742 -0.31481 2.93726 216 226 234
0.35164 -0.250936 2.94762 184 186 179
-0.237511 0.028893 2.84524 80 77 72
0.478282 0.0509363 3.20102 66 78 89
0.328535 0.0846732 3.03048 81 96 101
0.409508 0.169015 3.0003 54 74 80
0.0202064 0.198911 2.84281 80 103 108
-0.482716 0.269094 2.91364 80 92 96
0.37557 0.471145 2.73225 112 112 118
-0.746077 0.59975 3.09011 164 165 168
-0.248941 -0.698163 2.82343 88 36 64
0.319015 -0.690237 2.89099 86 64 82
0.0913983 -0.341033 2.8571 78 86 104
0.171349 -0.260354 2.77766 172 168 170
0.372115 -0.257659 3.02121 86 81 72
-0.0200615 -0.198598 2.81195 108 119 110
0.156253 -0.176167 2.80761 99 102 90
-0.819646 -0.121244 3.25383 44 29 26
0.150951 -0.0547003 2.8335 218 228 234
-0.0393003 0.130728 2.81106 48 64 76
-0.0102687 0.177121 2.81684 106 127 144
-0.470602 0.233078 2.83438 48 62 67
-0.0734759 0.415258 2.78425 66 78 84
-0.135847 0.420973 2.73545 40 39 36
-0.160453 0.442502 2.84039 35 40 28
-0.736709 0.535053 3.12929 87 68 53
0.251644 0.903539 2.98781 94 86 80
0.125199 -0.349397 2.97088 42 53 76
0.153217 -0.330523 2.8629 150 166 192
-0.116131 -0.283002 2.74255 160 152 154
0.412187 -0.152803 2.89776 216 212 218
-0.238431 0.0379154 2.827 84 86 84
-0.182303 0.0794735 2.88644 82 86 85
-0.524483 0.230091 2.87636 82 92 100
-0.210528 0.354695 2.77038 63 74 75
-0.0169793 0.369434 2.84725 100 122 132
0.119571 0.467839 2.96998 53 60 60
-0.0768841 0.43617 2.71956 73 68 50
-0.0567127 0.453631 2.80831 160 184 199
0.286562 -0.29979 3.00937 136 140 144
-0.157986 -0.234392 2.76788 196 206 208
0.46149 -0.0438407 3.28219 60 56 59
-0.394124 0.0592221 2.84198 43 54 54
-0.151308 0.0959444 2.82085 68 76 84
-0.0416168 0.127167 2.78332 74 92 104
-0.473913 0.260216 2.86241 76 87 90
0.522851 0.286125 2.77649 22 74 108
-0.121812 0.409985 2.74569 130 143 142
0.242243 0.504304 2.90129 42 36 26
-0.780515 0.748214 3.09923 104 94 80
0.209391 0.868196 3.09395 184 186 172
-0.171736 1.02102 3.08713 89 76 56
-0.00359047 -0.440911 2.86525 146 143 140
0.237388 -0.359296 3.03828 63 68 60
0.156841 -0.32414 2.93825 210 220 230
0.554133 -0.361216 3.26824 126 124 107
0.270631 -0.322541 3.06461 200 209 218
0.225521 -0.278709 2.93998 106 114 118
0.488931 -0.0290325 3.24124 58 46 54
0.482791 -0.012514 3.24715 93 86 88
-0.39738 0.061734 2.86641 35 44 46
-0.103832 0.415427 2.7968 132 148 152
-0.123035 0.426964 2.79477 138 152 156
-0.0828049 0.427051 2.7743 56 62 64
0.372641 0.426899 2.74104 146 142 140
-0.161425 0.434096 2.79035 40 48 38
0.417185 0.436606 2.75825 96 106 102
0.206775 0.875128 3.10022 180 184 174
-0.807175 1.18235 3.21828 77 86 105
-0.00886287 -0.884907 2.91619 152 109 140
0.19326 -0.385325 2.92788 44 56 75
-0.114571 -0.211106 2.7576 164 175 170
0.537174 0.257678 2.80915 72 121 142
-0.481478 0.263188 2.90311 69 82 86
0.405863 0.474256 2.79676 214 222 226
0.0136458 -0.844385 2.92075 80 48 64
0.160531 -0.546542 2.96313 188 200 198
0.103771 -0.484959 2.98212 152 151 138
0.154658 -0.32242 2.90782 202 210 224
-0.12739 -0.207128 2.78909 153 169 172
0.640938 -0.144732 3.32229 134 91 97
-0.307126 -0.0305019 2.68119 170 181 184
0.466284 -0.0425275 3.3227 67 64 66
-0.12752 0.152611 2.76862 44 54 61
-0.164323 0.439176 2.87744 42 42 40
-0.888917 0.694427 3.29179 34 28 23
-0.135878 -0.349226 1.60296 82 61 74
0.224903 -0.806387 4.80816 146 132 144
-0.189511 -0.212894 2.76966 132 142 139
-0.826169 -0.139546 3.1942 72 58 47
0.481636 0.0637774 3.25486 87 102 122
0.315134 -0.200738 2.81936 138 130 132
0.173894 0.00491071 2.85631 68 75 60
0.497894 1.32066 10.6524 40 38 23
0.472111 0.595199 3.32962 62 71 64
0.108844 -0.902478 2.93374 168 140 137
-0.44308 0.914948 3.0866 89 82 60
0.00991715 -0.509141 2.98238 190 198 198
0.0582049 -0.417581 2.93052 80 93 108
0.0557665 -0.405336 2.92223 100 106 118
0.577897 -0.382992 3.42338 168 172 163
-0.101823 -0.242835 2.73682 38 28 15
-0.216399 -0.200734 2.77534 171 178 186
0.493799 0.0657606 3.29843 94 108 126
-0.131816 1.1068 3.16809 95 99 110
0.340103 -0.120927 2.82616 242 250 255
-0.848498 0.0874492 3.60584 173 163 142
0.294251 0.553916 2.93257 158 147 154
0.196036 -0.410749 3.07386 54 59 78
-0.726672 -0.430519 3.25997 50 32 16
-0.737295 -0.00412264 3.3442 178 173 157
-0.242344 0.0492148 2.83843 84 93 106
0.295029 0.558383 2.98287 139 127 126
-0.0667271 1.0873 3.09478 44 37 26
0.0867817 0.0130214 3.22453 132 134 128
-0.0471445 -0.488071 2.90154 195 196 194
-0.0364078 -0.861602 2.91269 128 100 131
-0.195891 -0.581746 2.93812 78 76 74
0.5028 0.286473 2.88569 37 77 103
-0.11761 -0.298144 2.73708 163 154 158
0.482746 -0.0729267 3.57507 144 150 154
-0.0106648 -0.254174 2.74165 196 198 208
0.242412 -0.64524 2.15952 116 72 92
-0.031936 -0.881947 2.93315 132 90 117
-0.0324122 -0.744419 2.96858 96 68 86
-0.19595 -0.694807 2.90769 149 89 112
-0.0733153 -0.688911 2.92648 119 50 64
-0.0422718 -0.699969 3.00529 155 122 131
-0.226585 -0.657706 2.9202 149 104 122
-0.159765 -0.668605 2.958 162 157 158
-0.124509 -0.667446 2.98709 164 181 179
-0.164703 -0.662286 2.96953 145 156 152
-0.145683 -0.66025 2.98628 130 148 141
-0.189274 -0.577413 2.9427 20 22 12
-0.000721852 -0.56854 2.94478 122 122 122
0.0341346 -0.507982 2.97371 230 236 240
0.173903 -0.506778 3.02394 62 69 56
0.199876 -0.469423 2.99981 53 58 41
0.532587 -0.402743 3.37581 130 136 124
0.459958 -0.349585 3.18665 116 97 110
0.621123 -0.332259 3.40702 106 105 100
0.496125 -0.222504 3.11236 107 70 93
0.466012 -0.0316069 3.29081 92 98 100
0.39045 -0.00573404 3.09966 80 84 85
0.383815 -0.000993484 3.07676 160 164 165
0.475154 -0.000620898 3.35533 129 135 138
0.493503 0.012988 3.35006 154 152 148
0.370214 0.021882 3.09473 71 82 78
0.162314 0.0369254 2.91412 90 92 88
0.0723043 0.046328 2.893 120 132 132
0.213605 0.0543289 2.9089 76 78 70
0.551278 0.418104 3.0128 166 161 152
0.459242 0.412396 2.77296 7 58 93
0.50534 0.441426 2.89484 58 96 111
0.454418 0.435385 2.7695 104 128 138
0.388353 0.458587 2.73679 228 232 239
0.406625 0.500321 2.79328 140 138 129
0.428799 0.515336 2.81609 108 108 100
0.109078 0.666802 3.15198 120 108 66
0.115389 0.670146 3.15275 168 156 116
0.0962961 0.681101 3.1484 120 108 66
-0.634385 0.674343 3.10053 54 58 50
-0.776348 0.727923 3.12046 54 46 24
0.197282 0.802768 3.24756 162 146 103
0.179503 0.840147 3.09081 124 112 76
0.192747 0.864574 3.08706 154 158 154
0.187287 0.872699 3.07558 210 208 208
-0.0389828 0.908094 3.08718 148 136 104
-0.338264 0.928519 3.15745 117 110 82
0.338174 1.14784 3.66169 99 109 122
0.313254 1.16506 3.63389 87 90 96
-0.164581 1.08413 3.22473 84 82 68
0.0799214 1.25537 3.24316 91 120 163
0.0622148 1.26308 3.25765 88 117 158
-0.509058 1.25917 3.24019 58 87 128
0.0371161 1.30062 3.2446 88 118 159
0.0127614 1.31476 3.25517 70 102 148
-0.0429792 1.32551 3.22409 76 112 161
-0.499717 1.42356 3.14493 95 133 180
-0.519263 1.44268 3.16664 98 134 186
-0.29468 -0.687968 2.84074 84 37 61
-0.198554 -0.695511 2.91269 144 84 109
0.177633 -0.594772 3.01611 76 64 52
0.196928 -0.474661 3.02344 68 73 56
0.562588 -0.309089 3.38883 228 226 237
0.517888 -0.247017 3.22241 146 116 128
0.461046 -0.0335005 3.33381 98 104 106
0.503794 -0.010735 3.33003 67 54 59
0.123055 0.0158082 2.86458 55 60 56
0.367736 0.0140625 3.13877 92 102 98
0.210542 0.0537804 2.92045 84 84 76
0.507057 0.438821 2.85894 44 88 111
0.413297 0.45274 2.77335 123 128 118
0.405888 0.510767 2.81333 107 104 90
-0.792844 0.762235 3.13512 107 102 86
0.134077 0.77683 3.15561 154 136 93
0.183776 0.87585 3.09329 188 186 186
0.293214 1.11361 3.60671 74 79 76
0.267682 1.17464 3.52128 51 54 60
0.19387 1.20641 3.48635 38 44 56
0.182739 1.21256 3.33674 73 88 108
0.0892458 1.2272 3.19876 102 120 153
0.0821485 1.25319 3.24211 90 118 160
-0.213903 -0.755617 2.82777 124 84 106
-0.281542 -0.654357 2.84949 103 53 78
-0.239811 -0.646887 2.90155 122 72 92
-0.0884383 -0.650289 2.98963 78 88 74
0.0412824 -0.647773 3.03843 90 96 71
0.0304398 -0.638554 3.02962 143 151 133
-0.188241 -0.573151 2.92152 91 94 82
0.415273 -0.419975 3.03811 139 107 128
-0.424025 -0.387758 2.89691 124 132 116
0.531527 -0.417493 3.38593 101 108 88
0.561882 -0.352035 3.4068 80 82 64
-0.713436 -0.0687924 3.06454 69 50 33
0.403948 -0.0264106 3.10624 72 80 82
0.496785 -0.0111059 3.35972 71 59 61
0.0859831 0.0325881 2.90492 112 122 121
0.167668 0.0382004 2.90456 88 89 84
0.075932 0.0502148 2.88398 115 126 128
0.483071 0.0530316 3.23228 48 60 72
-0.045855 0.199541 2.79949 48 60 65
-0.128669 0.353179 2.79857 70 84 84
-0.0876548 0.406467 2.77908 102 113 114
0.417237 0.446566 2.76873 70 78 68
0.478755 0.465654 2.85077 144 176 190
0.48649 0.475195 2.89839 163 178 174
0.374697 0.467242 2.72683 116 108 108
-0.650692 0.646514 3.08851 106 110 110
-0.788597 0.75813 3.12188 100 94 78
0.0609206 0.79987 3.11963 101 89 62
0.175378 0.877363 3.07444 188 176 156
0.288372 1.12025 3.62101 89 94 90
-0.163527 1.08407 3.22154 78 76 61
0.269415 1.17638 3.52134 48 50 56
0.199553 1.18803 3.3136 64 72 90
0.0932383 1.22578 3.19277 86 106 138
0.023631 1.47231 3.25652 78 111 157
-0.0273996 1.48094 3.20827 71 106 153
-0.0267379 -0.679687 3.03372 181 198 190
-0.150359 -0.593685 2.9063 192 190 193
-0.408996 -0.477532 2.89706 113 62 88
0.294494 -0.488892 2.97951 94 64 73
0.316722 -0.458166 2.98713 112 74 84
0.55559 -0.365498 3.38239 205 205 200
0.555952 -0.347471 3.3971 68 68 50
0.451349 -0.0604805 3.2357 112 114 118
0.457168 -0.0378593 3.28105 70 76 81
0.47116 -0.0188967 3.31998 126 137 136
0.374934 0.0144701 3.10315 82 92 88
0.0886799 0.0350758 2.891 118 130 128
0.235123 0.0657768 2.92013 91 102 99
-0.151191 0.0918221 2.83362 72 76 76
0.554323 0.419035 3.00516 168 162 151
-0.197943 0.408424 2.77289 57 66 60
0.469028 0.450071 2.84108 83 121 146
0.424827 0.517659 2.83506 112 111 98
-0.659014 0.689248 3.10133 175 180 174
-0.790728 0.760791 3.12999 104 98 82
0.160789 0.771797 3.12632 170 154 124
0.174227 0.858965 3.10436 162 164 142
0.209611 0.875537 3.10074 187 190 176
0.182604 0.876697 3.0877 191 186 183
-0.437384 0.94408 3.14746 60 50 26
0.153975 0.952542 3.08621 120 114 94
0.340984 1.12446 3.71342 132 140 147
0.33859 1.13602 3.66521 106 116 128
0.278011 1.16368 3.57267 72 76 77
0.197633 1.19943 3.45625 42 48 60
0.195316 1.22412 3.40207 48 58 69
-0.21801 1.27357 3.32919 58 69 86
0.0518899 -0.652087 2.97091 123 118 99
-0.299942 -0.439372 2.91996 113 116 108
0.579025 -0.386274 3.38818 170 176 167
0.544994 -0.362018 3.35693 194 195 186
0.562623 -0.350008 3.38196 85 86 70
-0.699439 -0.0335986 3.07929 114 100 84
0.169091 -0.00771487 2.85936 188 196 197
0.122196 0.0198576 2.86691 50 53 44
0.136315 0.0422069 2.86946 26 36 35
0.348677 0.0519678 3.03954 65 72 80
-0.148102 0.0955095 2.82527 76 83 84
-0.232624 0.4029 2.79479 36 36 20
0.476198 0.47638 2.87156 154 168 164
0.459509 0.472325 2.77885 214 220 224
-0.691826 0.63227 3.0824 80 78 62
-0.658973 0.672684 3.076 174 182 178
-0.0113147 0.875717 3.10586 112 98 72
0.268769 0.922687 3.15344 196 181 156
-0.508963 1.08811 3.09484 70 90 136
-0.485703 1.13321 3.1447 50 61 86
0.0598842 1.28495 3.20741 21 44 82
-0.0396683 1.34203 3.22551 52 86 128
-0.0900185 -0.506409 2.91789 165 169 170
0.50292 -0.510846 3.23276 227 228 235
0.552301 -0.344607 3.37483 68 68 51
-0.776582 -0.108067 3.20603 124 108 92
-0.655637 0.00738277 3.03566 132 120 106
-0.413355 0.234241 2.87031 74 88 95
0.561053 0.416221 2.9725 170 162 150
0.448774 0.506653 2.80176 162 166 174
-0.781045 0.72866 3.11804 75 68 46
-0.795368 0.756237 3.13954 91 86 68
0.158052 0.777725 3.14716 184 170 138
0.305744 1.14885 3.71514 116 124 120
-0.183342 1.06609 3.17881 26 20 11
-0.230085 1.27549 3.35463 56 64 82
0.0874514 1.23448 3.21637 133 157 193
0.0804937 1.4011 3.41587 62 99 145
0.10672 -0.624506 3.0335 52 48 29
-0.0494354 -0.524714 2.91072 178 180 180
0.447342 -0.441145 3.22319 152 161 145
0.0178582 0.0653804 2.86689 177 191 186
0.381001 0.0829919 3.09989 98 114 122
-0.0399844 0.265828 2.80951 144 166 184
-0.209104 0.379803 2.83724 104 122 124
-0.174593 0.43093 2.85722 82 93 92
0.367061 0.478408 2.77684 122 115 114
-0.452803 0.969704 3.19321 64 54 36
0.237466 1.21695 3.47677 122 134 134
-0.052037 1.15751 3.16812 86 97 108
-0.495061 1.286 3.23255 58 96 144
-0.648359 -0.612714 3.15595 58 44 26
-0.0910305 -0.528392 2.89963 186 190 197
-0.17054 -0.504408 2.92215 72 74 52
-0.405769 -0.438793 2.93522 145 147 148
0.459431 -0.379097 3.14815 166 148 146
0.525632 -0.353605 3.15432 132 136 116
0.506448 -0.0162209 3.29137 46 33 40
0.125185 0.0210994 2.85634 56 60 53
-0.0808043 0.0827196 2.79426 118 130 122
-0.0431975 0.262953 2.81685 141 162 181
-0.667866 0.674858 3.11301 167 172 171
0.0669019 0.854543 3.06414 102 88 56
-0.0716493 0.952229 3.08942 98 82 51
-0.540377 1.20936 3.24635 30 52 88
-0.453097 1.21768 3.27391 44 45 46
-0.217368 1.26384 3.29151 57 69 90
0.0479388 -1.38777 3.42094 79 40 40
0.0552551 -1.37221 3.43639 144 95 114
-0.258413 -0.710907 2.81168 155 100 128
-0.204155 -0.705942 2.88113 136 84 108
-0.247943 -0.65631 2.87735 124 80 106
-0.300013 -0.634712 2.8388 120 74 98
0.529389 -0.52031 3.25345 240 248 253
0.337924 -0.40972 3.01732 116 70 84
-0.379879 -0.39597 2.94479 70 65 52
0.542072 -0.399794 3.37026 132 142 130
0.545819 -0.34382 3.4008 34 34 17
0.49248 -0.244504 2.60909 62 51 42
0.489835 -0.239407 3.08181 107 70 88
0.543978 -0.229219 3.15579 200 192 189
0.555827 -0.230712 3.23638 216 210 217
0.544814 -0.220095 3.19326 97 75 90
0.51861 -0.0148094 3.34868 43 26 39
0.474904 0.0261334 3.32626 47 54 53
0.140119 0.0331916 2.89839 102 108 106
0.433073 0.447359 2.76823 156 156 142
0.44103 0.481094 2.7636 191 190 198
0.117068 0.662621 3.16607 122 108 74
0.0590478 0.803161 3.11388 104 92 70
-0.365483 0.85187 3.15074 94 86 70
0.197709 0.890908 3.13563 168 170 155
0.194817 0.88805 3.09856 145 142 129
0.0970868 0.917326 3.05432 134 118 79
0.331046 1.10857 3.66321 56 67 64
0.262004 1.20073 3.55662 36 40 46
0.303378 0.749844 1.75178 68 84 109
0.014097 1.31867 3.24504 64 96 147
-0.0268968 1.4852 3.20898 82 110 152
-0.00602406 1.46399 3.1589 87 119 164
0.0471414 -1.38757 3.41498 94 60 56
0.565166 -0.409564 3.38726 216 223 221
0.536127 -0.360702 3.39707 166 168 143
0.496306 -0.273875 3.25822 104 90 87
0.329776 0.06959 2.97367 148 161 161
0.0232279 1.06549 3.12871 129 122 92
0.529044 -0.53082 3.29134 238 246 252
0.536321 -0.390177 3.39636 205 212 211
0.493804 -0.0189156 3.23654 86 78 80
0.261141 0.936601 3.20517 200 190 162
-0.484789 1.28928 3.22039 58 88 132
0.134114 -1.34939 3.49773 120 64 76
-0.315869 -0.65537 2.82207 141 88 121
-0.181661 -0.600526 2.92539 126 121 118
0.188788 -0.478258 3.03864 78 78 64
-0.417544 0.237582 2.87738 68 78 82
-0.015997 0.3435 2.80945 125 142 146
0.493774 0.460972 2.84354 142 163 160
-0.00604726 0.871726 3.1007 100 90 62
0.207603 0.882213 3.10402 176 175 156
0.317914 1.06778 3.77573 68 68 64
0.261234 0.936515 3.2019 200 188 160
0.178067 1.23826 3.4235 58 68 77
-0.526811 1.20648 3.22226 68 86 126
0.52056 -0.329952 3.35849 32 28 19
0.0266994 0.0634375 2.87244 162 176 168
0.248634 0.0732583 2.90805 148 160 158
0.339865 1.01958 3.86027 126 130 120
-0.0287362 1.29235 3.22447 56 80 118
0.0121405 1.4795 3.26706 84 120 170
-0.29783 -0.580094 2.94164 138 130 134
-0.0913136 -0.537694 2.92355 178 184 188
-0.384361 -0.492934 2.92741 82 64 68
0.521625 -0.433139 3.31457 201 220 234
0.559716 -0.308075 3.36564 212 213 218
-0.307612 0.326903 2.85992 68 78 76
-0.121906 0.351242 2.81763 116 138 142
0.069346 0.791767 3.10821 104 96 66
0.308912 1.15474 3.62547 74 80 82
-0.502925 1.29648 3.25326 52 84 132
-0.255399 -0.617716 2.93341 105 78 88
0.161416 -0.549876 3.02024 188 209 210
0.191581 -0.511616 3.01483 169 176 162
0.122929 -0.489339 2.9585 144 149 129
0.518838 -0.410417 3.31031 153 162 134
-0.115013 0.352974 2.78961 119 140 142
0.454547 0.470477 2.79472 196 202 206
0.166033 0.873978 3.17584 157 154 126
-0.0404082 1.34384 3.22718 42 72 113
-0.0828523 -0.675429 2.96229 93 34 42
0.160416 -0.551084 3.0237 195 214 212
-0.254775 -0.459794 2.87009 90 96 100
0.310308 0.0634795 2.98031 172 184 182
0.123335 0.80841 3.08729 89 78 60
0.122881 -1.38062 3.44004 98 73 86
-0.0817434 -0.702458 3.00476 135 66 81
-0.11247 -0.662955 2.97456 172 190 186
-0.247535 -0.58781 2.90202 104 110 92
0.446556 -0.214131 1.60823 106 83 80
0.561475 -0.308622 3.39203 230 232 240
0.542911 -0.203684 3.12726 144 97 134
0.564585 -0.205183 3.13658 146 116 142
0.379636 0.00792105 3.09437 61 70 67
0.548796 0.245136 2.79889 42 91 118
0.471665 0.448534 2.80424 88 114 134
0.029568 -1.40558 3.46527 147 120 113
0.532663 -0.404904 3.38218 119 128 114
0.537529 -0.388359 3.39813 212 222 218
0.578623 -0.369066 3.39696 142 142 126
0.563478 -0.211933 3.16067 136 112 130
0.471842 -0.0297582 3.31908 92 85 88
-0.119924 0.421285 2.76263 134 154 158
-0.168858 -0.579225 2.92407 124 128 124
0.535348 -0.362379 3.4117 171 175 154
0.461254 -0.0394347 3.29618 58 64 68
-0.429982 0.939786 3.12886 70 64 37
0.335727 1.14867 3.67904 96 108 114
0.745369 -0.629461 3.4499 220 214 208
0.521289 -0.540124 3.34579 237 249 252
0.531068 -0.422698 3.39306 76 88 58
0.537961 -0.365487 3.41247 182 187 170
-0.267164 0.886748 3.18827 62 54 28
0.132641 -1.37981 3.46009 87 73 78
0.134406 -1.35784 3.51952 124 68 78
0.00154941 -0.673743 3.03675 68 76 63
-0.404739 -0.442684 2.90008 109 96 94
0.477997 0.0226617 3.27311 54 66 70
0.48539 0.050426 3.16616 77 89 102
0.170363 0.907666 3.2123 172 166 160
0.319752 1.05483 3.7461 70 72 60
0.0676071 -1.40314 3.41763 172 150 134
0.134422 -1.37855 3.4438 96 77 84
0.0244248 -1.35698 3.43365 64 33 33
0.1309 -1.3444 3.50332 120 56 70
0.327617 0.0635196 2.92083 163 176 177
0.340119 1.13665 3.66131 92 104 111
0.120518 -1.34396 3.51021 110 39 63
-0.68014 -0.575945 3.26643 42 31 20
-0.756295 0.557943 3.1726 78 60 42
-0.861197 0.681191 3.19874 50 42 31
0.188715 0.858738 3.09454 174 170 150
-0.436059 1.00561 3.20982 46 45 34
0.333987 1.14201 3.67894 94 107 114
-0.80138 1.18561 3.21546 71 76 87
0.566512 -0.173271 3.14058 148 92 126
-0.136694 0.169969 2.81524 76 90 94
-0.707029 0.651472 3.08988 72 68 54
-0.496946 1.27764 3.22225 50 88 134
-0.0562789 1.31194 3.27085 46 70 112
-0.19765 -0.590258 2.92817 146 146 142
0.404012 -0.427984 3.00364 85 53 73
0.517412 -0.388732 3.46089 134 138 122
0.526495 -0.518936 3.26328 238 244 254
0.309656 -0.458134 3.00879 93 56 66
0.586183 -0.205828 3.19555 210 203 200
0.286268 0.0787547 2.9226 110 130 132
-0.796649 1.18885 3.21761 69 78 87
0.328298 -0.443297 2.98231 87 53 66
0.506901 -0.443045 3.2623 134 150 150
-0.255107 -0.701592 2.85042 83 31 56
-0.12127 0.415203 2.74343 138 158 164
0.0565048 -1.38126 3.3709 168 151 136
-0.31539 -0.653736 2.8217 150 98 132
-0.286457 -0.469608 2.88406 84 85 89
-0.772883 1.16762 3.14995 78 86 96
0.500523 -0.297919 3.27463 135 135 128
-0.435694 0.949411 3.14876 68 64 38
-0.0235868 -0.918157 2.87689 120 91 93
-0.0175474 -0.915279 2.87756 136 100 104
-0.014798 -0.904528 2.95058 175 134 156
-0.248533 -0.70011 2.84316 68 17 44
0.147144 -0.525098 2.98433 218 226 219
0.356465 -0.275214 1.79938 98 80 80
0.472036 -0.344858 3.19268 212 203 198
0.35199 0.0448502 3.0332 68 76 82
-0.138502 0.425911 2.74787 42 48 44
-0.132242 0.428849 2.7736 136 154 162
0.377775 0.471904 2.73149 132 132 134
0.163583 0.657046 2.74165 120 110 92
0.34632 1.09657 3.6657 136 144 156
-0.0118327 -0.865165 2.87594 154 117 141
0.406451 -0.0157922 3.04548 71 82 87
0.166489 0.0371891 2.89471 94 99 102
0.492838 0.034779 3.34951 152 155 150
-0.483758 0.245644 2.8806 32 48 52
-0.506944 0.276251 2.93704 63 67 68
0.492829 0.434945 2.786 44 80 104
0.458597 0.442367 2.78793 158 178 184
-0.659826 0.623332 3.09869 114 119 118
0.114355 -0.872217 2.82117 113 75 86
0.304122 -0.457804 3.0352 92 56 68
0.532291 -0.425846 3.38181 108 120 104
-0.48659 0.24648 2.88415 40 54 56
-0.105795 0.413068 2.76919 130 154 160
-0.0879575 0.428517 2.77098 41 46 44
0.461515 0.44112 2.77023 152 172 180
-1.18192 1.16433 3.60544 64 61 56
0.0488697 1.3099 3.26959 6 37 78
-0.00160819 -0.887599 2.88575 140 98 118
-0.0318434 -0.872513 2.9401 124 80 104
-0.61616 -0.47629 3.14547 94 76 62
-0.487157 0.246718 2.88226 36 49 52
-0.499139 0.2727 2.92043 66 70 72
-1.06234 0.860597 3.24968 72 67 58
-0.616744 -0.479443 3.14858 97 80 65
0.495282 -0.278966 3.04539 160 122 142
-0.100303 0.408188 2.75929 121 144 147
-0.160307 0.429909 2.77226 38 48 45
-1.13813 0.920384 3.39819 106 102 93
0.133889 1.30187 3.40717 82 104 138
0.55909 -0.227358 3.23936 186 191 188
0.38287 0.0792081 3.07436 100 116 124
-0.190315 0.380036 2.79006 100 123 130
-0.12273 0.413077 2.75002 134 160 169
-0.711325 0.670727 3.10455 79 76 64
0.121709 0.821683 3.13079 82 71 47
-0.00989102 0.875718 3.09766 118 106 80
0.306279 1.13868 3.60938 68 74 77
0.632854 -0.0807373 3.3861 127 94 100
-0.304125 0.319932 2.85888 78 90 92
-0.203717 0.323093 2.7635 71 81 82
-0.210273 0.358408 2.78585 53 64 59
-0.130766 0.418265 2.77611 130 154 167
-1.13238 0.914421 3.38534 110 106 97
0.190652 1.08853 3.30448 40 42 36
-0.669486 -0.571924 3.24275 36 27 15
0.593551 -0.188492 3.10413 118 80 94
-0.126933 0.355396 2.81607 98 122 126
-0.863476 0.679484 3.20006 46 38 30
-0.721506 0.707345 3.0979 124 121 116
-1.16191 1.06594 3.41955 80 76 67
-0.159715 -0.810392 2.83808 72 49 80
0.00529784 -0.839858 2.95623 32 14 20
0.30824 -0.569511 3.19498 82 55 70
0.358607 -0.561477 3.29089 138 102 112
0.435509 -0.425576 3.11551 180 175 167
0.489906 -0.355719 3.12086 53 57 41
0.580406 -0.369081 3.4012 136 136 120
0.443293 -0.299955 3.05903 92 63 79
0.458154 -0.0563687 3.28218 86 80 90
0.50923 0.0465866 3.26977 197 196 188
-0.630111 0.650546 3.05179 194 204 203
0.214575 1.03144 3.17625 112 106 91
0.324167 -0.447952 3.02385 78 43 57
0.503777 -0.445797 3.32655 204 216 230
0.533243 -0.423565 3.38028 68 78 62
0.4748 -0.365284 3.29251 226 227 226
0.482211 0.0707325 3.21002 64 76 94
-0.0247367 -0.928717 3.01134 136 95 112
0.490555 -0.355718 3.10353 60 63 48
0.523395 -0.326597 3.36208 60 54 54
0.469126 -0.0237112 3.35752 126 130 136
-0.483578 0.266343 2.90474 67 84 90
-0.030447 -0.924762 2.95552 112 64 77
-0.866356 -0.137337 3.30516 67 49 36
0.475947 0.0197591 3.41319 64 74 74
0.487868 0.0163473 3.334 152 150 148
0.202378 1.06646 3.23333 42 42 40
-0.186276 -0.81695 2.86007 128 98 128
0.455955 -0.0448247 3.22221 92 96 106
0.469552 -0.0233788 3.33191 125 130 136
-0.556036 0.204113 2.85545 94 93 84
-0.502551 0.25739 2.91444 26 36 36
-0.064995 -0.509382 2.8979 138 132 132
-0.608202 -0.480226 3.11681 95 77 59
-0.827491 -0.139525 3.22041 43 25 14
-0.483687 0.264406 2.90624 69 86 92
0.195363 1.09187 3.31032 52 49 42
0.467314 -0.366933 3.18699 170 160 174
0.608963 -0.0541796 3.42814 93 68 84
-0.315565 -0.558045 2.93886 108 70 84
0.54529 -0.349762 3.34696 88 86 70
0.506242 -0.30959 3.33017 164 162 154
0.556779 -0.310148 3.33705 200 199 200
0.633182 -0.0958262 3.45681 129 70 91
-0.728214 -0.0674608 3.1148 68 54 35
0.612039 -0.0570283 3.38186 93 70 85
-0.0122276 -0.884438 2.91213 141 104 137
0.106609 -0.830855 2.84797 100 64 82
-0.0163641 -0.765825 2.94335 106 80 92
0.334675 -0.660175 2.90958 149 128 136
0.34731 -0.610439 2.91131 138 122 134
0.339772 -0.577699 2.92844 183 150 181
-0.142158 -0.51535 2.92126 198 196 194
0.376006 -0.519735 3.28143 118 72 94
0.438471 -0.281999 1.99903 124 78 94
0.354029 -0.421349 3.00929 114 74 92
0.248185 0.477252 2.07783 133 131 120
0.0463349 0.795533 3.05505 64 48 32
0.102839 1.23249 3.20873 90 117 156
0.508921 -0.379976 3.14718 196 202 189
0.49896 -0.34392 3.33252 87 88 78
0.547585 -0.280226 3.35449 200 206 200
0.562356 0.256496 2.81392 28 78 103
0.385278 0.463519 2.76397 206 208 220
0.183731 -0.489832 3.00879 104 111 104
0.337099 -0.423756 2.98552 58 18 35
0.354143 -0.419947 2.99085 108 68 88
0.557631 -0.305 3.35824 226 226 234
0.548313 -0.281921 3.37195 188 197 192
0.523831 -0.274722 3.39695 181 157 160
0.395687 -0.500417 3.31241 143 106 120
0.336123 -0.424903 2.99425 68 28 45
0.500325 -0.507658 3.22349 236 242 248
0.3176 -0.306426 2.16241 166 164 162
0.472986 -0.367499 3.25128 164 145 158
0.593072 -0.190878 3.14 116 84 92
0.604564 -0.269362 3.39435 222 232 238
-1.22223 0.660001 3.69884 72 63 52
0.494505 -0.391161 3.22337 170 176 164
-0.745875 0.602545 3.08909 154 154 156
0.276292 0.841845 3.35545 169 150 120
-1.13601 1.05261 3.36588 54 48 40
0.361375 0.477838 2.77521 120 113 112
0.402168 0.524223 2.81529 88 92 85
0.289175 0.54972 2.91531 152 146 150
0.129822 -0.880251 2.86953 168 134 138
0.0781325 -0.53083 2.99051 228 238 242
0.45831 0.439565 2.78767 148 174 186
-0.640425 0.649449 3.0582 144 148 148
0.176572 -1.24623 3.09773 121 87 84
0.118746 -1.3849 3.4492 78 53 62
0.115293 -1.34612 3.4065 182 140 172
0.118113 -1.36571 3.46857 198 174 200
0.116078 -1.35786 3.47443 159 121 150
0.13586 -1.36823 3.52106 126 80 87
-0.155503 -0.82941 2.84027 104 78 98
-0.170177 -0.712574 2.9076 129 82 104
0.2898 -0.712298 2.88355 168 126 143
-0.109797 -0.679811 2.98724 96 73 82
-0.251878 -0.6251 2.88763 130 85 101
0.0411727 -0.645144 3.03974 64 68 44
-0.254274 -0.574065 2.89589 44 53 40
0.296379 -0.45538 3.03483 100 62 72
0.047498 -0.416687 2.96149 150 164 163
0.506398 -0.470602 3.40808 104 120 116
0.503025 -0.449415 3.35786 180 206 221
0.41394 -0.422651 3.20685 175 162 152
0.447399 -0.408431 3.15032 90 89 60
0.499651 -0.441408 3.3428 158 181 192
0.502332 -0.43827 3.37083 208 232 243
0.491944 -0.433008 3.34731 112 123 118
0.49342 -0.41483 3.38545 217 225 210
0.138395 -0.329014 2.9192 170 177 178
0.49592 -0.395561 3.37121 155 160 135
0.533625 -0.371477 3.24094 72 74 50
0.118198 -0.292166 2.86462 98 106 100
0.192947 -0.302994 2.93129 99 112 99
0.327837 -0.314612 3.05892 56 62 48
0.22514 -0.286082 2.92642 85 94 82
0.297772 -0.296364 3.01127 122 130 122
0.331782 -0.303805 3.06495 154 160 154
0.457683 -0.321664 3.30888 74 80 82
0.343506 -0.300009 3.09968 61 72 59
-0.134767 -0.244954 2.77833 164 171 156
0.17648 -0.253684 2.82698 183 183 180
0.61982 -0.337578 3.4211 102 104 96
0.453415 -0.316796 3.32519 185 178 170
0.359563 -0.278151 3.11208 100 102 78
0.159892 -0.240021 2.83327 89 90 80
0.16387 -0.227896 2.81614 181 184 169
0.379205 -0.262737 3.1222 94 88 70
0.37394 -0.26037 3.10933 137 141 120
0.13671 -0.219391 2.81126 239 246 253
