ply
format ascii 1.0
element vertex 1277
property float x
property float y
property float z
property uchar red
property uchar green
property uchar blue
end_header
0.514336 0.0120287 1.59793 136 141 136
0.380672 0.0731461 1.57443 156 170 178
0.609939 0.19842 1.53752 48 88 96
0.0700812 0.329431 1.71799 152 155 148
0.296112 -0.296746 1.64566 194 195 202
0.0580353 0.313321 1.73243 135 134 134
0.481112 -0.321715 1.66795 46 44 31
0.41907 -0.255741 1.63453 114 125 110
0.339087 -0.333422 1.64512 191 194 202
0.158406 -0.0205824 1.61098 30 28 24
0.264908 -0.276011 1.6322 144 149 144
0.329052 -0.126879 1.52495 96 102 89
0.227872 -0.281405 1.62752 32 40 23
0.377165 -0.0261072 1.5221 155 160 158
0.278099 -0.338222 1.63739 46 48 36
0.478648 -0.104044 1.56098 145 144 134
0.435483 -0.0217895 1.54804 68 74 66
0.415932 -0.0172463 1.55455 191 200 195
0.340008 -0.135525 1.55289 86 82 62
0.447052 -0.341528 1.6674 92 85 66
0.483772 -0.30336 1.65929 87 98 86
0.478445 -0.142345 1.5617 185 188 176
0.208279 -0.00586652 1.59436 96 106 105
0.485079 -0.0141202 1.60076 44 44 28
0.298716 -0.296544 1.64001 228 229 234
0.123874 -0.349744 2.00281 84 74 58
0.0478263 0.314665 1.72141 122 118 108
0.139673 0.55156 1.7634 73 100 148
0.460116 -0.285618 1.66317 131 134 118
0.496198 -0.275884 1.6752 167 176 164
0.0603602 0.336824 1.71296 72 66 50
0.560884 -0.198239 1.69927 194 194 181
0.463797 -0.261998 1.65369 87 85 70
0.496917 -0.260237 1.67645 126 130 116
0.0611844 0.515647 1.73429 128 128 114
0.518649 -0.163931 1.67254 112 116 114
0.430971 0.233529 1.71863 51 58 46
0.0716448 0.32394 1.71322 188 195 194
0.444161 0.358687 1.74449 92 79 59
0.448645 -0.261752 1.64884 157 162 158
0.146632 -0.0257663 1.64554 70 70 66
0.371403 -0.288308 1.62654 189 191 192
0.416801 0.234615 1.72657 110 131 138
0.176989 0.470513 1.74956 60 58 43
0.33511 -0.260621 1.63739 129 134 132
0.192662 -0.223569 1.62531 56 59 51
0.488541 -0.163832 1.53917 161 160 165
0.475501 -0.134339 1.5559 168 172 162
0.0529717 0.274937 1.7573 162 170 173
0.397489 -0.359353 1.66559 104 113 102
0.265653 -0.333335 1.63618 197 188 183
0.492134 -0.285176 1.67818 182 187 182
0.149291 0.116068 1.61544 71 81 85
0.297409 -0.317312 1.63903 91 88 85
0.438912 -0.252797 1.63997 99 105 112
0.185209 0.0962366 1.60168 84 102 108
0.466773 -0.173362 1.5654 80 92 104
0.280362 -0.0885131 1.55518 78 79 67
0.202758 0.043335 1.58106 103 120 130
0.181393 -0.194822 1.60416 94 82 63
0.050833 0.342013 1.74897 106 104 94
0.254718 -0.317162 1.63814 114 122 113
0.426381 -0.730713 1.88287 86 44 49
0.356446 -0.369085 1.66704 174 154 152
0.236498 -0.299501 1.62367 185 166 166
0.41655 -0.259633 1.63624 151 161 152
0.590007 -0.249506 1.65761 76 45 62
0.213269 -0.222459 1.62373 38 35 26
0.389127 -0.123374 1.56178 177 190 175
0.394101 0.0225244 1.57488 152 164 173
0.0561078 0.268147 1.74505 163 172 173
0.448594 -0.725968 1.89064 134 93 111
0.560342 -0.23914 1.6625 116 78 90
0.213073 -0.224238 1.61739 50 50 42
0.177305 -0.218412 1.62213 138 143 136
0.472921 -0.0915016 1.55071 192 196 198
0.220667 -0.0104985 1.59872 64 79 81
0.067037 0.320465 1.72279 163 169 166
0.260884 -0.333984 1.62097 110 83 95
0.457872 -0.263114 1.64702 174 178 173
0.589874 -0.25294 1.65825 56 24 41
0.179733 -0.193216 1.60254 76 59 42
0.438633 -0.116148 1.56309 111 104 88
0.736926 -0.0497654 1.99999 112 95 94
0.0103545 0.289637 1.74448 157 149 148
0.4658 -0.721554 1.91373 125 90 120
0.369483 -0.0537017 1.51583 174 178 190
0.495723 -0.263697 1.67199 112 116 102
0.182294 -0.195521 1.59748 106 90 72
0.380599 0.137285 1.58249 82 98 106
0.387545 0.156463 1.58323 133 159 174
0.179898 0.463899 1.73639 44 46 37
0.491404 -0.250022 1.66508 193 194 196
0.615734 -0.244771 1.69457 196 189 188
0.180865 -0.194517 1.60082 98 82 64
0.572812 -0.0753404 1.58778 250 252 255
0.368675 -0.0335075 1.5467 154 153 152
0.408949 -0.0121224 1.56312 206 218 224
0.204052 0.0621947 1.58519 59 68 70
0.47228 0.057676 1.60605 122 148 156
0.241536 0.142193 1.58819 80 92 94
0.391922 -0.445956 1.59357 113 76 102
0.469937 -0.262563 1.63639 119 119 112
0.194746 -0.199723 1.6038 91 76 58
0.411573 -0.182065 1.53975 246 252 255
0.448955 -0.107446 1.55363 29 42 38
0.454588 0.0701812 1.57967 93 115 124
0.36351 0.406692 1.73024 142 134 94
0.601917 -0.303359 1.68211 200 187 170
0.203529 -0.225751 1.6055 96 104 100
0.406853 0.00942528 1.57403 200 212 221
0.375319 0.141535 1.57859 96 115 124
0.437064 0.391568 1.81307 73 64 36
0.316016 -0.454957 1.59466 100 64 94
0.479315 -0.423405 1.59303 94 62 75
0.269989 -0.404704 1.56696 104 64 98
0.25066 -0.40214 1.5709 124 86 110
0.554202 -0.352328 1.61272 149 120 155
0.18731 -0.294979 1.58844 120 74 92
0.346124 -0.284524 1.62535 208 204 214
0.170843 -0.2735 1.61376 86 44 62
0.580076 -0.262674 1.64228 130 96 118
0.595254 -0.25862 1.65453 98 58 76
0.432103 -0.25415 1.63589 182 190 196
0.470762 -0.093693 1.23331 66 52 65
0.164895 -0.0143778 1.60268 96 100 98
0.254473 -0.00627438 1.58068 44 54 60
0.414811 0.0206489 1.59905 80 93 97
0.35249 0.182825 1.5593 63 72 73
0.0645684 0.299722 1.72405 145 149 148
0.454672 -0.718978 1.89673 217 178 211
0.267401 -0.332132 1.14462 138 100 126
0.278032 -0.421944 1.5741 136 100 130
0.224915 -0.372321 1.56544 118 77 96
0.329874 -0.370207 1.6543 108 66 83
0.261551 -0.335028 1.62249 107 74 86
0.404506 -0.277414 1.64879 164 170 168
0.58217 -0.263814 1.64717 120 86 108
0.594287 -0.231179 1.65923 96 70 92
0.507884 -0.212175 1.67538 120 127 136
0.586583 -0.188216 1.70273 98 63 82
0.396708 -0.128196 1.55834 189 196 191
0.28296 -0.12578 1.55055 178 188 196
0.366518 -0.0438649 1.50544 154 150 155
0.223064 -0.0185086 1.57635 114 128 134
0.383837 0.0573646 1.57644 134 153 163
0.155719 0.102858 1.60989 111 132 140
0.664145 0.100291 1.52893 42 96 116
0.682371 0.112087 1.55996 56 94 112
0.595043 0.225202 1.54591 165 168 173
0.0357405 0.344074 1.70889 190 189 192
0.446278 0.356183 1.75745 108 96 73
0.35624 -0.458592 1.60884 157 128 160
0.315874 -0.460019 1.71358 122 91 120
0.253337 -0.379381 1.56913 146 91 123
0.251285 -0.381241 1.58574 126 80 114
0.467083 -0.269662 1.65702 142 136 137
0.374505 -0.25301 1.60708 186 182 176
0.541903 -0.223979 1.68623 80 84 70
0.362816 -0.127803 1.53618 131 136 126
0.410018 -0.128181 1.56164 122 129 120
0.40318 0.0426 1.58704 76 90 100
0.671365 0.105735 1.5502 68 119 143
0.684168 0.111248 1.56772 52 96 116
0.494247 0.540856 1.78984 55 60 50
0.233481 -0.355388 1.58399 169 117 158
0.280785 -0.347347 1.65304 151 128 134
0.377326 -0.253451 1.61358 184 182 176
0.193714 -0.215906 1.62357 82 84 79
0.204833 -0.202185 1.6022 112 99 86
0.179534 -0.192903 1.59423 83 66 50
0.458731 -0.119479 1.5391 183 192 192
0.176292 0.0341435 1.59015 54 62 62
0.404655 0.0777036 1.58192 100 122 126
0.200409 0.0945513 1.61146 76 83 86
0.292554 0.192465 1.56276 60 73 76
0.55144 0.211671 1.56427 66 58 50
0.0539032 0.524901 1.74139 105 102 94
0.435354 -0.720797 1.88672 163 114 141
0.278714 -0.282725 1.62553 176 180 188
0.197028 -0.240529 1.60009 160 164 175
0.536102 -0.244973 1.67474 94 78 68
0.0692571 -0.25379 1.78634 98 84 64
0.331528 -0.145632 1.51199 57 52 34
0.60517 -0.100472 1.59424 176 170 180
-0.226945 0.324652 2.06573 86 80 69
0.0465666 0.312081 1.7226 146 140 134
0.423281 -0.739352 1.89247 153 124 114
0.566106 -0.342984 1.61821 110 84 108
0.0681862 -0.257293 1.79582 94 80 60
0.40921 -0.182833 1.53155 245 252 255
0.0230502 -0.179626 1.74956 124 110 92
0.382996 -0.123223 1.54644 121 128 120
0.160141 -0.0273149 1.60245 64 61 56
0.327806 0.126222 1.56779 68 84 88
0.216788 0.158829 1.60067 90 114 128
0.294908 0.178315 1.57019 102 122 120
0.64018 0.198012 1.5505 42 90 110
0.433144 -0.326704 1.64469 130 116 110
0.366925 -0.286253 1.65837 178 175 181
0.0534222 -0.282032 1.81073 62 46 28
0.240744 -0.246988 1.64257 92 88 83
0.0705521 -0.256987 1.78376 94 80 60
0.329692 -0.17778 1.52668 158 148 152
0.545333 -0.188099 1.68558 210 222 226
0.276277 0.191261 1.5734 45 40 27
0.326677 0.527073 1.78085 31 22 12
0.293906 -0.448327 1.66676 126 90 122
0.491836 -0.232776 1.63983 118 122 128
0.46758 -0.124171 1.53533 118 126 119
0.446907 -0.0130117 1.5987 89 98 92
0.481361 -0.0112127 1.60169 56 58 52
0.476519 0.00595625 1.59222 61 70 66
0.143716 0.0489947 1.60651 50 48 45
0.152177 0.0558648 1.60375 106 112 112
0.281314 0.152683 1.56345 80 88 81
0.008905 0.286385 1.72502 152 146 142
0.4077 0.491029 1.71318 118 106 85
0.325891 -0.393914 1.35559 110 73 100
0.376506 -0.453606 1.59651 187 157 187
0.267473 -0.443813 1.58341 126 80 88
0.452505 -0.44721 1.59543 102 72 90
0.489385 -0.440952 1.57577 138 94 114
0.508033 -0.424939 1.59553 110 74 100
0.257634 -0.412082 1.56773 110 72 99
0.252404 -0.403096 1.55946 82 49 85
0.243843 -0.390648 1.5793 148 105 134
0.384146 -0.406521 1.64082 102 73 87
0.229244 -0.375497 1.56324 141 97 122
0.224088 -0.369199 1.58182 101 56 78
1.50238 -1.68348 7.29404 147 102 132
0.223952 -0.364133 1.59161 144 92 113
0.226948 -0.354467 1.59079 153 98 138
0.553859 -0.356971 1.63673 100 65 91
0.218918 -0.34428 1.58489 127 74 98
0.262111 -0.330704 1.63976 228 213 218
0.139579 -0.353138 1.79707 170 145 130
0.242494 -0.280206 1.62513 202 204 214
0.411306 -0.260241 1.62901 127 136 132
0.440915 -0.260335 1.64648 212 226 230
0.139902 -0.23861 1.61793 98 62 70
0.123057 -0.228904 1.63736 101 70 79
0.206914 -0.201626 1.60696 68 53 36
0.56826 -0.180282 1.69505 136 135 134
0.322915 -0.145169 1.541 140 142 129
0.576655 -0.0678638 1.59888 242 248 253
0.183091 -0.031206 1.60528 170 168 162
0.700724 0.0242021 1.62122 117 128 127
0.646331 0.0457671 1.73681 164 166 164
0.20149 0.0881326 1.59482 92 98 100
0.149058 0.118517 1.62301 90 98 100
0.359104 0.154885 1.42365 71 88 90
-0.0894737 0.314589 2.03887 88 82 80
0.0690005 0.278676 1.6878 179 186 188
0.465227 0.509656 1.69047 52 57 55
0.395516 0.561438 1.76629 134 136 120
0.448936 0.607546 1.76711 76 98 133
0.439064 0.613618 1.75695 84 115 156
0.162238 0.840759 2.22528 68 96 139
0.340342 -0.455561 1.59399 137 112 142
0.276764 -0.423209 1.56694 124 90 126
0.509724 -0.429843 1.61163 150 105 133
0.261265 -0.422891 1.59048 119 74 86
0.263721 -0.421677 1.57469 80 36 58
0.278358 -0.424154 1.59149 118 86 120
0.336353 -0.427218 1.60217 126 88 111
0.239478 -0.3854 1.56711 148 104 132
0.23345 -0.381935 1.56513 117 68 92
0.226376 -0.372311 1.57971 112 71 95
0.22902 -0.369063 1.5668 132 89 119
0.323618 -0.31279 1.61917 202 208 214
0.50247 -0.245311 1.66712 94 98 94
0.114689 -0.223881 1.63448 92 66 80
0.415891 -0.142959 1.54882 146 150 137
0.275513 -0.131657 1.57113 182 198 204
0.31081 -0.114036 1.5459 125 126 124
0.359883 -0.116667 1.4473 76 86 69
0.51696 0.0158376 1.62668 86 100 100
0.646989 0.0446763 1.73545 172 173 169
0.156152 0.0541647 1.59474 122 133 134
0.152915 0.101259 1.61562 54 71 78
0.65331 0.12175 1.52556 26 90 118
0.65623 0.133257 1.55265 68 119 151
0.312786 0.156252 1.55077 84 94 96
0.306373 0.67344 1.97559 63 78 96
0.461757 -0.714576 1.89731 156 108 142
0.267631 -0.44355 1.57552 106 62 69
0.261901 -0.421433 1.56603 84 39 58
0.362035 -0.432467 1.60724 124 86 108
0.51442 -0.418355 1.58463 176 144 182
0.250633 -0.399668 1.56494 127 94 126
0.244882 -0.391933 1.56859 131 88 113
0.13804 -0.353654 1.78917 170 148 129
0.0259691 -0.341405 1.79083 86 66 52
0.242167 -0.280992 1.6256 177 176 182
0.394714 -0.280798 1.625 214 222 226
0.450653 -0.260614 1.65181 135 142 148
0.496515 -0.264237 1.67544 106 112 106
0.409672 -0.251546 1.62333 208 215 210
0.114752 -0.225047 1.63129 54 24 32
0.20518 -0.20158 1.59915 84 72 58
0.313282 -0.139747 1.55103 208 222 221
0.35158 -0.12924 1.55191 84 84 64
0.311719 -0.114048 1.54711 120 122 120
0.452551 -0.00120465 1.58468 58 68 65
0.307108 0.0466325 1.57515 32 36 30
0.644822 0.057848 1.71868 70 84 83
0.205992 0.0549555 1.56911 52 67 73
0.202688 0.0842403 1.58909 103 120 125
0.12434 0.0981153 1.60423 84 94 100
0.149887 0.1168 1.61883 86 95 97
0.300192 0.201318 1.59468 62 82 80
0.374055 0.219032 1.58364 166 187 196
0.471289 0.266592 1.77051 88 80 71
0.393378 0.657745 1.80214 23 54 100
0.267358 -0.443451 1.5773 120 76 82
0.406311 -0.453485 1.63229 68 32 52
0.281967 -0.429445 1.58368 124 92 126
0.276775 -0.391499 1.59954 117 66 94
0.222249 -0.362439 1.57566 138 86 107
0.315733 -0.255201 1.63806 60 68 84
0.490881 -0.228173 1.6614 60 68 84
0.428828 -0.150278 1.56065 178 184 180
0.701607 -0.117889 1.75426 119 86 99
0.206973 0.0600594 1.59192 61 74 78
0.535714 0.106088 1.61891 68 84 84
0.631095 0.192774 1.53181 34 90 120
0.291161 0.204107 1.55887 58 57 54
0.491254 0.567315 1.82064 56 64 66
0.32399 -0.451432 1.59707 126 102 137
0.283701 -0.428661 1.58179 128 96 128
0.241279 -0.379615 1.56705 119 81 112
0.556612 -0.381819 1.62124 174 163 200
0.231974 -0.353777 1.56974 178 126 168
0.350698 -0.277833 1.62903 180 176 174
0.474637 -0.27521 1.65777 226 226 228
0.462757 -0.266384 1.65083 96 97 92
0.495936 -0.227581 1.67481 50 56 66
0.306749 -0.124729 1.01145 146 160 169
0.55867 -0.182384 1.68168 122 130 128
0.102876 -0.142811 1.64826 70 57 44
0.271916 -0.134033 1.54776 183 198 202
0.264486 -0.132433 1.55557 228 238 248
0.362322 -0.131401 1.55411 92 88 73
0.282204 -0.0574633 1.55743 76 68 51
0.247968 -0.0400669 1.59149 176 191 189
0.389507 0.0575906 1.59108 126 147 160
0.38131 0.0735811 1.57313 162 178 190
0.145571 0.101359 1.58719 43 54 56
0.566147 0.105126 1.64769 74 101 102
0.670916 0.135978 1.58407 52 109 138
0.397525 0.169442 1.63283 150 168 179
0.292247 0.187029 1.5775 97 106 104
0.113175 0.212607 1.7524 112 104 100
0.278858 0.190889 1.57219 47 44 36
0.469502 0.266483 1.78585 57 48 36
0.0143484 0.32006 1.7227 156 147 150
-0.0151793 0.5706 1.77157 68 68 80
0.0533828 0.597795 1.75442 52 68 112
0.449419 0.611935 1.77826 40 58 86
0.0994924 -0.292631 1.76463 78 63 46
0.497033 -0.263358 1.6749 114 120 112
0.463912 -0.190812 1.59729 118 134 151
0.45975 -0.134514 1.5593 234 246 254
0.262174 -0.130105 1.55203 235 245 254
0.56243 -0.133676 1.59045 195 188 190
0.246869 -0.0314801 1.59907 182 198 204
0.448115 -0.0124569 1.59742 68 77 72
0.371321 0.043936 1.57942 83 100 110
0.610403 0.0693196 1.62551 94 166 199
0.147093 0.107899 1.62445 58 66 68
0.15079 0.113636 1.61684 82 93 96
0.0419834 0.244554 1.78146 140 133 126
-0.174871 0.289108 2.07223 86 76 64
0.556817 0.258227 1.61601 94 88 78
-0.0213174 0.297064 1.77237 92 71 52
0.0695582 0.299067 1.72918 168 174 174
0.0407038 0.313996 1.72652 135 126 118
0.151765 0.364256 1.72612 158 152 144
0.110038 0.382586 1.68542 184 180 170
0.465422 0.399831 1.70354 90 80 49
0.415022 0.496779 1.73112 136 130 104
0.413591 0.585157 1.76435 30 34 37
0.452961 -0.724938 1.91153 140 104 132
0.320009 -0.447496 1.59095 150 126 162
0.544162 -0.392975 1.60703 108 86 120
0.13796 -0.361658 1.81348 169 146 125
0.46952 -0.317751 1.65222 174 176 173
0.233476 -0.301927 1.61488 137 106 118
0.361673 -0.239033 1.59387 104 86 72
0.516548 -0.205072 1.68628 60 67 64
0.41497 -0.178827 1.58618 240 244 252
0.494189 -0.150361 1.60962 196 195 192
0.26185 -0.131871 1.56539 210 219 230
0.333754 -0.130327 1.54691 152 160 147
0.70368 -0.119203 1.76895 138 102 118
0.159142 -0.0493133 1.5847 166 156 156
0.543229 0.00699518 1.63535 205 214 218
0.22874 0.0117583 1.5914 80 88 94
0.594857 0.0120581 1.6996 78 94 97
0.226566 0.0205371 1.59712 73 92 95
0.29456 0.0250516 1.59574 78 90 96
0.694873 0.0248774 1.61922 129 144 145
0.318618 0.0608275 1.5818 85 103 108
0.641909 0.19738 1.55746 32 92 120
0.582413 0.222429 1.54004 126 118 116
0.593022 0.255038 1.58951 170 170 170
0.0619685 0.322099 1.71514 172 171 166
0.443771 0.384133 1.73848 120 114 84
0.467711 0.403329 1.73603 84 72 46
0.457988 -0.700741 1.89293 118 54 82
0.304319 -0.359616 1.61575 126 117 118
0.229809 -0.285506 1.65241 69 70 68
0.488433 -0.268153 1.68964 212 216 221
0.482175 -0.207583 1.66317 20 41 72
0.55369 -0.204962 1.69373 183 191 183
0.479799 -0.185848 1.62007 198 208 224
0.562132 -0.186619 1.68015 94 84 76
0.377842 -0.12057 1.56547 68 82 86
0.0213507 -0.0767899 1.79707 134 120 114
0.579842 -0.0346256 1.55993 130 138 148
0.393733 -0.0289881 1.54331 190 198 202
0.570749 0.0315101 1.67554 58 69 68
0.616806 0.0540486 1.65959 83 95 97
0.32034 0.0662885 1.54646 66 78 84
0.449714 0.0681617 1.59259 130 158 170
0.666056 0.0998371 1.56287 32 90 112
0.105064 0.207142 1.75362 148 140 138
0.639079 0.19357 1.54888 30 88 122
0.285823 0.200153 1.55603 84 84 74
0.549323 0.200118 1.56561 110 108 98
0.519951 0.384844 1.79902 134 126 104
-0.212144 0.432464 1.95761 128 120 110
0.385025 0.426325 1.71699 86 69 46
0.443235 -0.467438 1.59362 228 204 192
0.468787 -0.456307 1.59547 122 76 99
0.534535 -0.439764 1.64737 98 74 104
0.550399 -0.370908 1.61592 178 158 197
0.564457 -0.367347 1.621 216 206 226
0.203312 -0.242051 1.62618 190 198 217
0.435913 -0.0108588 1.57654 69 76 72
0.654732 0.119856 1.56652 94 137 160
-0.0194749 0.295383 1.76876 68 48 24
0.0675173 0.30588 1.74266 167 168 164
0.0707222 0.304899 1.71985 192 194 198
0.00825646 0.357551 1.73538 87 74 60
0.395633 0.66056 1.80852 26 66 115
0.451969 -0.466921 1.58573 132 104 92
0.417687 -0.461059 1.6362 206 184 184
0.516196 -0.403831 1.60561 119 77 94
0.244997 -0.390911 1.56599 158 128 157
0.235867 -0.369115 1.5648 100 52 86
0.47532 -0.279719 1.65767 208 210 212
0.315657 -0.255884 1.63675 70 68 90
0.204 -0.241734 1.62619 190 198 217
0.560208 -0.204843 1.69447 160 148 148
0.2631 -0.131632 1.54963 233 241 247
0.373545 -0.112131 1.54904 161 169 156
0.457947 -0.112189 1.57115 154 160 163
0.318982 0.0262931 1.58609 78 78 79
0.657141 0.119925 1.56868 94 136 158
0.507264 0.237675 1.61224 98 91 82
0.0669284 0.298987 1.70722 186 189 188
0.39009 0.745618 1.78765 118 159 208
0.447251 -0.467367 1.58804 110 82 69
0.372417 -0.462422 1.59365 192 176 207
0.479335 -0.431493 1.5875 63 32 44
0.539241 -0.426963 1.63251 107 85 110
0.551983 -0.383427 1.61166 129 119 154
0.552558 -0.376531 1.59919 127 117 148
0.223443 -0.364409 1.57713 138 94 112
0.520476 -0.184772 1.66995 180 183 176
0.535055 -0.180461 1.67233 203 210 211
0.346322 -0.138088 1.55887 34 33 14
0.14937 0.00156007 1.61076 31 36 31
-0.0341075 0.0253224 1.98524 170 162 144
0.451793 0.051614 1.61134 151 170 174
0.916249 0.152743 2.58738 100 114 116
0.353833 0.197 1.54469 59 70 64
0.562947 0.241768 1.59239 70 64 49
0.359002 0.62743 1.79156 38 49 76
0.403824 0.651155 1.80358 74 104 148
0.43494 -0.720628 1.88277 158 119 144
0.452479 -0.462508 1.57784 76 39 38
0.387824 -0.464131 1.60033 193 168 200
0.389645 -0.439747 1.60977 103 69 88
0.530777 -0.40995 1.61921 108 74 102
0.494977 -0.275458 1.70247 182 186 184
0.567989 -0.237368 1.66549 72 33 46
0.0509392 -0.229801 1.82255 36 30 18
0.108369 -0.134719 1.62101 81 63 44
0.35134 0.182071 1.55876 75 83 80
0.604632 0.198942 1.54833 157 171 173
0.639996 0.20275 1.55579 73 107 132
0.00463109 0.342469 1.74239 60 48 32
-0.006411 0.343124 1.73741 114 103 84
0.0553765 0.614543 1.80208 62 86 127
0.433275 0.628798 1.7799 119 153 199
0.357774 0.745687 1.78112 128 168 216
0.549594 -0.428126 1.66467 196 171 204
0.512783 -0.222726 1.70569 118 134 154
0.514509 -0.201299 1.6671 84 88 80
0.554792 -0.123184 1.56839 158 155 154
0.162754 -0.0463878 1.59436 172 162 158
0.660109 0.119636 1.56806 75 118 134
0.0420818 0.301282 1.71652 128 118 110
-0.00139981 0.352175 1.73418 62 50 33
-0.0091634 0.366498 1.73422 114 97 80
0.377898 -0.468921 1.57203 98 62 77
0.448187 -0.468316 1.5809 191 168 150
0.386754 -0.460744 1.60644 180 165 198
0.419657 -0.463687 1.63382 203 188 174
0.546074 -0.390617 1.60648 99 78 110
0.554179 -0.347427 1.61908 120 92 120
0.464675 -0.264951 1.65667 86 82 69
0.0516441 -0.229712 1.81115 24 15 8
0.509755 -0.202814 1.66139 62 69 62
0.487569 -0.0397767 1.60029 104 115 115
0.453204 0.168245 1.61582 94 102 95
0.522438 0.195924 1.59219 134 132 130
0.297135 0.206069 1.58254 68 72 65
0.0587146 0.241527 1.76187 42 38 32
0.0538815 0.313066 1.75865 142 134 127
0.156384 0.480147 1.73044 58 58 40
0.457201 -0.706667 1.89566 128 64 90
0.234205 -0.180705 1.1809 60 58 48
0.546134 -0.207308 1.67635 178 182 177
0.556514 0.031161 1.64786 83 96 96
0.557906 0.112894 1.61043 100 116 129
0.500189 0.221035 1.60039 130 128 118
0.0652835 0.296097 1.71194 156 158 157
0.430254 0.405097 1.72274 66 49 26
0.441063 0.584634 1.78834 126 123 106
0.419943 0.591298 1.78182 35 42 42
0.326374 -0.174424 1.52484 162 154 156
0.313914 -0.147419 1.56451 186 194 199
0.322596 -0.135752 1.55522 164 174 172
0.361824 -0.0347248 1.53617 130 124 115
-0.0170029 0.0110184 1.97649 188 178 159
0.620242 0.065546 1.63957 132 190 214
0.316788 0.186725 1.66806 88 101 101
0.562778 0.266231 1.63433 94 88 78
0.483377 -0.28247 1.67814 115 117 114
0.219721 -0.221385 1.60965 46 40 30
0.260188 -0.208912 1.61822 34 22 13
0.515843 -0.211312 1.67274 140 141 132
0.565932 -0.203715 1.68556 130 98 102
0.481748 -0.194191 1.66031 40 58 94
0.535252 -0.181005 1.68287 185 190 187
0.579021 -0.169319 1.7151 116 114 104
0.577733 -0.162939 1.70772 200 202 191
0.31436 -0.134013 1.54952 203 216 212
0.418973 -0.131124 1.56308 38 38 16
0.382953 -0.125813 1.55349 158 169 152
0.380339 -0.116077 1.54992 48 54 37
0.451321 -0.0144946 1.60107 84 83 77
0.413387 -0.0128911 1.56009 167 176 174
0.53002 0.0207285 1.62685 214 230 228
0.380547 0.0262604 1.57342 120 128 134
0.292971 0.0380539 1.5886 66 81 87
0.44818 0.0425605 1.61188 102 123 126
0.479387 0.202855 1.55914 26 19 8
0.400091 0.209882 1.59426 120 139 132
0.366205 0.207464 1.54111 187 212 226
0.328045 -0.280154 1.6351 108 108 97
0.467051 -0.284995 1.65767 126 129 124
0.230271 -0.279638 1.63466 30 29 26
0.402635 -0.275253 1.63317 159 168 164
0.344157 -0.273578 1.62645 111 100 90
0.456457 -0.271046 1.6597 202 197 179
0.409764 -0.264578 1.63937 228 232 228
0.504374 -0.254308 1.6693 99 100 82
0.533906 -0.243762 1.68366 112 116 100
0.620319 -0.235782 1.69107 226 227 228
0.462775 -0.015218 1.59881 152 150 145
0.594426 0.2065 1.52268 226 236 243
0.602147 0.212759 1.52932 164 165 168
0.588277 0.214985 1.53846 176 168 168
0.0568516 0.249611 1.7874 52 50 40
0.0620418 0.249408 1.78279 30 24 13
0.0563797 0.266819 1.74492 171 174 172
0.471355 -0.0892475 1.56911 228 231 238
0.339524 -0.0603346 1.51714 133 122 121
0.370257 -0.05013 1.51278 170 168 178
0.247526 -0.0472352 1.57598 166 180 164
0.308707 -0.0431339 1.55563 135 125 116
0.291117 0.0124582 1.58937 96 102 96
0.439247 0.0159002 1.71973 54 66 64
0.566761 0.0218944 1.67579 57 71 74
0.335043 0.0243827 1.56391 39 36 28
0.550107 0.0331521 1.64638 85 102 105
0.71594 -0.190397 1.86856 168 178 175
0.483188 -0.148408 1.59058 196 194 194
0.310408 -0.139955 1.54422 202 210 212
0.415849 -0.141173 1.55969 183 187 167
0.322129 -0.13622 1.53622 161 174 158
0.429124 -0.138977 1.55453 88 83 52
0.48426 -0.139657 1.5828 188 186 180
0.333862 -0.0288214 1.54338 92 86 70
0.364432 -0.0262129 1.53356 124 118 109
0.481782 -0.0239316 1.59546 202 210 216
0.0469719 -0.0268592 1.7184 105 98 81
0.18859 -0.0246412 1.6016 50 55 49
0.409211 -0.0195035 1.57209 216 224 224
0.643116 -0.0218063 1.77504 90 88 88
0.559667 -0.242407 1.66278 158 114 127
0.194597 -0.222937 1.62332 82 78 70
0.509979 -0.222592 1.66895 50 56 53
0.0371359 -0.214271 1.78463 100 77 60
0.189154 -0.135399 1.53398 168 167 172
0.360192 -0.130063 1.54104 84 78 61
0.471344 -0.0926456 1.56211 208 208 212
-0.0213941 -0.0809177 1.81044 69 52 44
0.260778 -0.0686206 1.56847 136 138 128
0.269197 -0.064265 1.56341 74 66 50
0.358161 -0.0288569 1.53175 120 112 99
0.460005 0.00428011 1.61542 35 42 36
0.552797 0.0146438 1.64782 189 200 204
0.0597779 0.312756 1.72099 108 109 105
0.318453 0.535751 1.77938 106 104 102
0.26638 -0.163279 1.55201 192 191 191
0.274556 -0.15768 1.56036 112 110 98
0.718844 -0.189159 1.86831 130 140 136
0.387086 -0.144868 1.5279 214 217 224
0.449256 -0.107915 1.56458 63 70 71
0.308669 -0.0996448 1.54296 173 176 177
0.456068 -0.0969266 1.57651 150 151 143
0.155073 -0.0160876 1.61651 68 62 59
0.48894 0.00714743 1.60574 61 64 62
0.553402 0.0128291 1.65509 196 206 210
0.198609 0.0438993 1.59168 104 112 122
0.602529 0.0744095 1.64472 78 98 106
0.327829 0.0233644 1.57535 42 36 29
0.247494 -0.379039 1.57557 96 50 78
0.314444 -0.38227 1.6406 160 110 132
0.381265 -0.363711 1.68251 190 204 195
0.544692 -0.335549 1.62247 98 63 80
0.32462 -0.289018 1.6377 58 52 34
0.297039 -0.28681 1.6394 168 172 172
0.268152 -0.286577 1.63837 90 96 89
0.513129 -0.276799 1.68869 42 30 20
0.469322 -0.258827 1.66436 36 32 22
0.659468 -0.195133 1.77692 145 144 122
0.624341 -0.174056 1.70482 88 60 72
0.591354 -0.171726 1.7059 98 59 62
0.376778 -0.120733 1.55379 50 62 60
0.454233 -0.110029 1.56137 89 96 92
0.266074 -0.0901617 1.5592 117 125 112
0.3646 -0.0236653 1.53543 146 148 143
0.463336 -0.0150463 1.61822 160 160 152
0.388093 0.0737545 1.58279 118 139 150
0.682098 0.113416 1.56389 44 92 115
0.0451418 0.281337 1.73446 187 184 182
0.265938 0.437205 1.71848 77 70 53
0.529925 0.600291 1.91205 123 132 143
0.381092 -0.459176 1.6183 162 126 155
0.279034 -0.410327 1.5793 88 49 78
0.256058 -0.385427 1.58081 100 50 82
0.381591 -0.364644 1.68426 172 187 181
0.477948 -0.33085 1.67401 101 88 76
0.510013 -0.226397 1.67655 59 63 62
0.53941 -0.221699 1.68643 70 79 70
0.584025 -0.211629 1.68705 117 88 98
0.523106 -0.186287 1.67757 186 194 183
0.502472 -0.182821 1.65443 196 208 200
0.702056 -0.200614 1.86151 167 164 146
0.649505 -0.165773 1.69747 181 157 172
0.446541 -0.115239 1.56318 189 193 186
0.272231 0.00154575 1.58339 112 116 118
0.452198 0.0451702 1.60538 146 169 179
0.196444 0.096973 1.57822 76 84 90
0.61881 0.206694 1.54276 126 132 127
0.0710572 0.318498 1.72986 208 209 208
0.284667 -0.319826 1.6347 110 109 103
0.343725 -0.26803 1.62136 80 80 72
0.37122 -0.0418403 1.52012 182 176 186
0.404884 0.0313609 1.58665 108 122 125
0.446057 0.0503406 1.60362 152 172 180
0.44388 0.205951 1.59834 102 104 104
0.320664 0.521296 1.76971 40 32 17
0.543776 -0.301849 1.64346 76 47 58
0.254061 -0.275002 1.63321 128 126 128
0.455902 -0.261224 1.65927 178 180 184
0.197238 -0.257088 1.62679 130 143 146
0.447051 -0.25746 1.65943 118 129 140
0.334101 -0.155856 1.5335 105 97 75
0.689728 -0.175832 1.8204 214 219 216
0.327715 0.160597 1.56569 82 95 96
0.511365 0.189808 1.56944 122 120 114
-0.00116621 0.355848 1.7406 67 60 40
0.29964 0.527289 1.77089 31 24 15
0.376494 0.575905 1.76011 100 106 116
0.271404 -0.348815 1.61689 137 88 110
0.341756 -0.292255 1.62834 176 166 164
0.551121 -0.252379 1.66642 76 36 43
0.265883 -0.16272 1.55181 184 186 186
0.483019 -0.0357671 1.59064 70 76 74
0.481012 -0.0238453 1.59147 190 198 196
0.263681 0.00188247 1.60298 59 61 62
0.507385 0.0040658 1.6086 161 162 153
0.326797 0.0737411 1.56687 51 64 64
0.342322 -0.339698 1.64903 200 201 206
0.457941 -0.334634 1.66401 50 44 26
0.677166 -0.312364 1.80485 166 148 120
0.466516 -0.263388 1.65531 88 84 64
0.332286 0.0253812 1.57034 33 30 24
0.347377 0.0349655 1.55441 54 68 74
0.472427 0.0605899 1.60977 139 162 170
0.378686 0.137056 1.57291 89 108 122
0.0334987 0.317584 1.74852 100 93 80
0.434901 0.387247 1.73241 124 113 83
0.416899 -0.280337 1.645 218 224 226
0.490966 -0.250077 1.66962 194 188 192
0.561622 -0.180807 1.69367 79 84 77
0.405899 -0.126737 1.53761 126 134 116
0.346626 -0.0671574 1.52137 176 171 170
0.407063 -0.00869582 1.56509 222 231 238
0.382115 0.0592856 1.57386 110 128 137
0.241628 0.143158 1.59249 76 88 85
0.424096 0.19725 1.59803 54 51 42
0.25489 -0.318084 1.63132 156 162 150
0.212607 -0.283173 1.64266 118 110 120
0.240731 -0.231481 1.63629 43 38 36
0.482905 -0.201143 1.64424 29 40 78
0.558222 -0.199692 1.69031 192 187 176
0.263519 -0.15825 1.54971 184 187 186
0.451543 -0.00981556 1.6027 60 64 54
0.423319 0.0171422 1.60018 98 110 106
0.447183 0.169373 1.60382 89 96 96
0.425658 -0.724029 1.89514 122 72 87
0.25915 -0.32308 1.62741 172 174 160
0.450521 -0.261782 1.66482 36 52 58
0.629865 -0.223935 1.69333 208 197 196
0.498294 -0.203022 1.6684 106 120 152
0.492629 -0.135789 1.57605 136 136 124
0.450891 -0.114758 1.56312 198 206 198
0.40899 -0.0205481 1.56554 192 200 200
0.408302 0.0570172 1.59226 148 168 176
0.324735 -0.289594 1.63866 60 54 40
0.515962 -0.212038 1.67481 119 124 112
0.636326 -0.212891 1.73653 152 139 130
0.49085 -0.195496 1.67038 36 50 80
0.427216 -0.129175 1.57086 40 36 12
0.481267 -0.106725 1.56754 175 174 163
0.352864 0.478343 1.72834 125 110 76
0.378613 -0.396153 1.65449 68 38 52
0.299765 -0.314516 1.63556 32 30 24
0.448986 -0.259047 1.65699 50 65 66
0.493464 -0.196208 1.66931 34 48 80
0.339481 -0.358702 1.65177 152 166 163
0.268245 -0.34495 1.63332 88 46 61
0.384382 -0.0599193 1.51852 147 142 142
0.263835 -0.0530838 1.5766 37 38 22
0.38422 -0.464685 1.61789 144 114 140
0.509861 -0.209894 1.67348 57 66 72
0.336931 -0.0235771 1.54227 144 136 125
0.379088 0.136231 1.57631 81 102 111
0.335768 -0.149795 1.54322 62 51 30
0.425994 -0.021325 1.57777 46 54 49
0.486697 0.0104615 1.61194 80 94 92
0.300929 0.0138126 1.56984 86 90 86
0.208559 -0.265312 1.62768 95 112 100
0.47241 -0.125129 1.55916 222 228 235
0.380582 -0.11947 1.5456 52 62 48
0.462838 -0.111392 1.57325 62 66 66
0.354201 -0.29365 1.62767 204 202 206
0.304628 -0.276739 1.64015 102 94 84
0.196794 0.0986399 1.58003 68 76 78
0.340096 -0.293744 1.6266 168 158 154
0.503425 -0.244095 1.67557 53 58 52
0.539561 -0.238767 1.67777 96 89 68
0.608745 -0.171584 1.58912 162 148 140
0.497323 -0.260704 1.67678 80 90 78
0.279155 -0.159339 1.54522 85 70 54
0.430437 -0.136246 1.27375 121 131 122
0.485526 -0.0414599 1.58563 178 182 170
0.402848 -0.0156476 1.76579 166 174 180
0.243552 0.24697 1.42791 77 70 48
0.474512 -0.14588 1.57841 122 128 116
0.471051 -0.0156098 1.60326 127 132 128
0.610044 0.000930614 2.31574 96 94 100
0.517245 0.0211867 1.6172 120 137 142
0.404884 0.107483 1.57915 130 154 164
0.483527 -0.0554384 1.56691 129 135 126
0.459616 0.205332 1.58814 46 48 41
0.347405 -0.372627 1.67514 88 46 50
0.343603 -0.270759 1.64828 139 136 128
0.158274 -0.220768 1.62325 72 70 54
0.481773 -0.0670681 1.57408 186 192 190
0.327687 -0.0271448 1.55531 118 111 94
0.480563 -0.145872 1.56058 150 155 146
0.0751135 -0.328364 1.73445 51 37 18
0.482944 -0.0142946 1.5999 48 48 36
0.490709 0.013898 1.60729 86 98 106
0.465008 -0.704859 1.9155 118 45 71
0.449433 -0.106485 1.56182 44 49 48
0.379976 -0.375449 1.66853 84 58 70
0.488652 -0.18292 1.61694 199 203 213
0.400676 -0.354321 1.68558 143 150 142
0.268248 -0.164078 1.55064 176 175 178
0.336015 -0.0607039 1.5206 178 170 173
0.290113 -0.318732 1.63905 96 98 95
0.357566 -0.266432 1.62815 90 82 68
0.374759 -0.253811 1.61694 172 166 162
0.188302 -0.133897 1.53593 146 150 154
0.468731 -0.113509 1.55694 100 106 104
0.347435 0.015994 1.55171 168 170 172
0.0709158 0.334768 1.70865 96 92 91
0.385104 0.153937 1.57351 130 148 158
0.434143 -0.742812 1.89413 162 138 124
0.332008 -0.269898 1.63391 188 196 197
0.205482 0.057081 1.58141 64 78 86
0.349621 -0.27152 1.62068 110 113 102
0.345584 -0.0297886 1.55297 53 50 44
0.409257 0.0090747 1.57664 198 210 210
0.507952 0.0160188 1.62143 78 94 92
0.460114 0.0714297 1.58915 94 121 133
0.0808702 0.243038 1.7392 25 20 10
0.0605376 0.325861 1.74551 168 176 171
0.29155 -0.312555 1.60597 142 144 145
0.3456 -0.289702 1.62353 198 196 205
0.520954 -0.239973 1.67432 200 208 209
0.345837 -0.0319173 1.55239 96 93 88
0.31311 0.134508 1.59966 85 98 107
0.173838 0.476564 1.75505 74 71 58
0.28211 -0.0926444 1.54524 94 94 85
0.296202 0.0276064 1.5883 28 40 44
0.10277 -0.353349 2.04541 82 53 58
0.132605 -0.209758 1.62303 82 70 65
0.368976 0.0444118 1.58261 52 76 90
0.373725 -0.291306 1.62521 192 196 202
0.231521 -0.287325 1.6375 32 34 22
0.339033 -0.317817 1.63207 206 209 214
0.231231 -0.281756 1.61169 58 61 50
0.391742 -0.0281272 1.53477 177 184 190
0.390954 0.0335401 1.59536 40 55 63
0.476545 -0.27202 1.65292 208 214 218
0.462211 -0.121175 1.52808 192 200 198
0.197952 0.0501333 1.39984 82 83 85
0.383129 0.161761 1.58756 130 150 162
0.406051 0.221066 1.69593 50 63 52
0.545956 -0.216422 1.67241 108 106 92
0.271763 0.00141008 1.57987 85 93 100
0.338077 -0.0257062 1.56805 100 100 92
0.258842 -0.377156 1.61017 90 36 64
0.397027 -0.361778 1.67016 96 102 91
0.286332 -0.287358 1.64172 186 188 194
0.612352 -0.230631 1.69547 100 72 84
0.450863 -0.192238 1.59311 62 72 90
0.67908 -0.209181 1.81272 176 179 174
0.651875 -0.195001 1.74724 112 109 104
0.455282 -0.0925524 1.56709 160 165 170
0.272678 0.00137027 1.5799 100 108 111
0.452453 0.0435018 1.6066 138 157 166
0.398326 0.175458 1.58363 49 72 78
0.605046 0.21173 1.54848 148 156 156
-0.217048 0.331856 2.01521 106 100 88
0.360634 -0.456512 1.60408 144 108 137
0.475822 -0.28966 1.67213 218 226 228
0.520752 -0.235535 1.66513 213 218 229
0.189674 -0.228822 1.629 142 142 140
0.172968 -0.21848 1.62081 141 140 131
0.650248 -0.19824 1.76466 74 60 64
0.33483 -0.149919 1.56107 70 59 39
0.476779 -0.141671 1.58296 112 114 106
0.31487 -0.123256 1.55648 152 160 159
0.148873 0.11822 1.62017 81 96 98
0.435565 -0.150007 1.36966 216 230 228
0.324175 -0.138632 1.54815 135 150 142
0.453591 0.0784187 1.6154 122 141 152
0.431556 -0.290067 1.64065 230 236 240
0.520847 -0.190072 1.67766 156 165 158
-0.192817 0.441342 1.89996 108 102 90
0.254258 -0.320482 1.6177 177 164 164
0.640855 -0.20215 1.71584 203 202 211
0.341877 -0.138581 1.53485 88 85 70
0.0294351 -0.0487029 1.71649 95 84 70
0.445136 -0.0156567 1.57867 102 108 104
0.493218 -0.228656 1.66025 36 41 58
0.450293 -0.118907 1.56174 193 198 199
0.344469 -0.0304105 1.5528 63 58 52
0.478368 -0.0268204 1.58971 197 209 213
0.508244 0.00356109 1.62262 154 162 158
0.525212 0.0176633 1.61424 149 166 168
0.327731 0.175161 1.58265 88 105 108
0.426477 -0.306655 1.64755 144 140 138
0.358443 -0.265002 1.62694 88 76 68
0.402613 -0.180022 1.58917 228 233 240
0.477177 -0.0747055 1.57782 197 204 214
0.379363 0.0772616 1.59087 144 164 174
0.210397 -0.233521 1.62316 141 146 152
0.406419 -0.179226 1.59066 249 254 254
0.40646 -0.00728733 1.56742 213 224 230
0.243843 0.00707633 1.58918 106 119 124
0.4088 0.00896354 1.58354 198 211 219
0.450277 0.0323049 1.00395 115 156 168
0.444681 -0.465257 1.58465 112 76 78
0.499538 -0.442519 1.62425 126 86 110
0.355886 -0.429739 1.61269 64 24 47
0.305024 -0.418325 1.58772 69 26 56
0.524017 -0.416103 1.60134 136 102 138
0.257386 -0.40847 1.56706 84 48 80
0.22189 -0.369254 1.57899 80 35 50
0.388102 -0.389344 1.66367 102 80 94
0.219935 -0.359018 1.56984 141 90 112
0.21686 -0.340983 1.56882 138 86 108
0.241281 -0.344804 1.58638 151 93 128
0.228218 -0.339928 1.59849 130 80 110
0.436036 -0.283137 1.65085 183 188 192
0.244676 -0.265884 1.63638 64 57 58
0.59884 -0.252699 1.6665 112 74 92
0.528623 -0.246175 1.68553 196 206 196
0.502458 -0.198861 1.65666 108 120 126
0.347724 -0.13721 1.55488 38 30 17
0.601085 -0.110385 1.59574 46 36 46
0.464439 -0.0615384 1.56302 200 210 214
0.670033 0.0216176 1.78303 90 102 99
0.523908 0.0268376 1.63192 90 109 120
0.539608 0.0466171 1.63403 95 116 124
0.310809 0.0507031 1.56851 85 94 92
0.63394 0.105992 1.56129 64 122 154
0.594264 0.195796 1.53152 126 141 150
0.296879 -0.434653 1.57113 88 48 72
0.221045 -0.360847 1.57293 144 92 116
0.608523 -0.225669 1.67976 70 38 54
0.497872 -0.193152 1.67178 123 135 156
0.0153455 -0.17786 1.80943 158 131 117
0.39083 -0.0219883 1.56048 210 220 222
0.296464 0.0264568 1.56674 32 46 58
0.389573 -0.464689 1.60034 178 137 171
0.457292 -0.44074 1.6104 104 72 90
0.537634 -0.392353 1.61332 84 44 76
0.220287 -0.358976 1.55746 130 78 98
0.0193516 -0.174376 1.783 164 137 124
0.469878 -0.118298 1.5847 199 205 210
0.532436 0.020951 1.63725 187 204 204
0.0589964 0.299194 1.72042 120 122 123
0.299204 -0.442623 1.57697 108 70 96
0.260617 -0.406698 1.56901 142 107 144
0.544365 -0.337248 1.62195 90 54 68
0.403706 -0.274489 1.63344 160 167 164
0.565482 -0.249224 1.678 77 38 52
0.482107 -0.244982 1.67 30 32 42
0.0217192 -0.24002 1.80773 60 42 28
0.564609 -0.204971 1.68017 136 111 112
0.410016 -0.178245 1.61832 249 253 254
0.0120022 -0.177062 1.80599 169 148 130
-0.218356 0.315534 2.02097 102 96 86
0.390093 -0.468152 1.60495 144 101 138
0.31896 -0.446199 1.58126 112 94 126
0.405398 -0.136315 1.55714 164 174 166
0.143632 0.108745 1.62402 42 54 54
0.282905 0.170265 1.58104 64 72 70
0.289716 0.184059 1.56818 96 108 104
0.0147923 0.263505 1.76521 80 63 52
0.605573 -0.252581 1.6512 204 196 202
0.633059 -0.215362 1.69521 177 162 168
0.564421 -0.164447 1.42178 196 194 195
0.37426 -0.106106 1.55339 126 138 121
0.599086 0.00435446 1.71104 84 96 98
0.288751 0.0143333 1.59161 87 98 98
0.353708 0.208252 1.54932 74 73 53
0.58743 0.223223 1.54808 150 146 151
0.289739 0.658141 1.93925 72 84 104
0.517724 -0.423322 1.6135 136 94 132
0.560077 -0.246075 1.68196 106 62 75
0.632193 -0.216215 1.70848 170 150 161
0.60562 -0.049794 1.62939 210 218 226
0.593604 0.0060715 1.71119 74 86 94
0.373649 0.11638 1.5707 146 174 190
0.349058 0.177936 1.57044 62 65 74
0.545964 0.199029 1.55357 120 112 101
0.317108 -0.450421 1.59638 116 95 131
0.54618 -0.387249 1.62856 198 163 198
0.405108 -0.252927 1.62711 216 223 227
0.113248 -0.183088 1.62902 60 44 34
0.00683261 -0.176832 1.80591 160 141 120
0.312084 -0.142457 1.55119 208 216 222
0.630205 -0.0532511 1.70718 122 121 128
0.620859 0.0327896 1.65369 92 107 108
0.450596 0.0655619 1.61105 124 145 150
0.315461 0.0698209 1.62595 96 107 113
-0.0938599 0.30119 2.02468 138 132 126
0.48353 -0.449228 1.57799 96 45 64
0.496985 -0.438497 1.58475 172 134 160
0.315891 -0.149562 0.668805 86 94 108
0.378264 -0.349682 1.66793 124 126 126
0.413075 -0.242332 1.59925 169 181 168
0.410049 -0.243287 1.60835 210 214 206
0.362783 -0.166483 1.18351 119 124 130
0.312295 -0.233658 1.66589 58 57 61
0.438192 -0.200562 1.59312 162 169 184
0.468528 -0.208256 1.65162 104 133 182
0.467802 -0.198805 1.63882 150 182 229
0.453631 -0.187573 1.62376 134 139 144
0.559787 -0.184849 1.68526 142 148 146
0.490718 -0.175564 1.64229 152 159 164
0.570178 -0.14364 1.62156 98 93 92
0.149664 -0.0115414 1.61194 85 87 87
0.572594 -0.00799761 1.59811 88 106 112
0.600825 0.197725 1.54347 164 185 192
0.338211 -0.456099 1.59529 122 94 121
0.546101 -0.386412 1.60966 162 142 179
0.450522 -0.300522 1.65627 228 236 245
0.438602 -0.204442 1.21284 143 131 130
0.645876 -0.318989 1.85959 210 194 185
0.412885 -0.23646 1.5823 57 67 68
0.156928 -0.210929 1.62201 126 118 104
0.460134 -0.196986 1.63521 67 82 114
0.468621 -0.189013 1.63967 184 194 198
0.719843 -0.191265 1.8792 150 156 156
0.512863 -0.163091 1.64142 102 106 107
0.56731 -0.142365 1.60363 94 88 87
0.375257 -0.121721 1.56209 69 81 82
0.455034 -0.00635282 1.58997 78 82 76
0.642332 0.206182 1.56068 79 107 130
0.616819 0.233835 1.55912 138 134 128
0.51741 0.379444 1.7693 141 127 102
0.166793 0.460705 1.75904 150 139 110
0.425831 0.61566 1.74956 110 140 190
0.384687 -0.490721 1.60807 124 81 100
0.355634 -0.452064 1.61925 112 78 105
0.542615 -0.383973 1.61363 166 128 156
0.213994 -0.320922 1.57833 96 38 78
0.641503 -0.317641 1.84778 206 188 186
0.179579 -0.251648 1.62439 87 46 62
0.618542 -0.22398 1.65752 202 208 212
0.468337 -0.205909 1.64445 118 149 196
0.476394 -0.195283 1.64823 68 90 131
0.719855 -0.191415 1.87564 147 152 152
0.471997 -0.0559631 1.5755 170 180 180
0.355733 -0.0512266 1.51638 144 136 138
0.429606 -0.0101162 1.58032 196 211 202
0.148405 -0.0101031 1.61072 70 71 70
0.457775 0.00317806 1.60322 38 50 48
0.585168 0.0176782 5.21633 46 44 40
0.560326 0.0151859 1.63997 86 96 105
0.165241 0.0468409 1.59679 104 120 120
1.96257 0.37792 8.40425 133 153 176
0.650679 0.119822 1.56314 78 112 138
0.602518 0.221735 1.54829 210 217 223
0.391633 0.559603 1.77571 130 122 100
-0.0151906 0.584547 1.80514 71 74 88
0.380268 0.581243 1.77408 95 101 110
0.425913 0.61261 1.7456 86 114 164
0.479684 -0.458385 1.58874 94 56 74
0.648251 -0.323888 1.88065 199 182 190
0.335062 -0.260224 1.64343 132 130 128
0.664454 0.131266 1.55821 19 84 120
0.294063 0.197303 1.60457 84 86 84
0.329889 0.190533 1.54425 126 141 141
0.348524 0.201361 1.54969 66 77 82
0.593266 0.248705 1.56257 144 152 153
0.164005 0.448405 1.72577 158 150 117
0.0520952 0.606703 1.7795 48 60 104
0.470869 -0.187345 1.62486 192 202 208
0.481346 -0.182424 1.6359 224 236 243
0.529619 -0.166896 1.6453 183 188 184
0.280376 -0.0887254 1.5621 86 85 76
0.150485 -0.00487041 1.65278 54 55 54
0.54988 0.030332 1.6498 94 110 113
-0.0401517 0.218848 1.85883 148 138 128
0.164155 0.445077 1.72363 162 153 119
0.320436 -0.31138 1.08082 186 169 186
0.0559545 -0.312675 1.77747 46 32 16
0.480867 -0.186081 1.63377 126 140 164
0.504433 -0.19285 1.67469 66 79 90
0.50841 -0.165244 1.63582 116 123 126
0.56165 -0.134582 1.59745 182 181 178
0.556105 -0.121362 1.57355 148 142 143
0.445749 0.0146665 1.61411 84 98 95
0.216988 0.163135 1.6262 94 116 136
0.110753 0.209806 1.75947 134 126 124
0.341106 0.187834 1.534 137 158 168
0.342782 0.208688 1.65919 136 152 153
0.603474 0.204119 1.56114 158 171 176
0.294299 0.208601 1.58696 57 62 56
0.632031 -0.275501 1.77744 164 144 146
0.528017 -0.16646 1.64827 182 186 182
0.478734 -0.0435659 1.58464 87 97 100
0.604452 0.0112976 1.62122 88 99 110
0.658504 0.0995218 1.55493 34 89 111
0.454343 0.172617 1.63868 88 92 91
0.356024 0.21231 1.59324 82 91 86
-0.0246176 0.302193 1.79993 98 78 59
0.168269 0.434929 1.6758 92 84 65
-0.116541 0.534647 1.99121 72 66 63
0.403436 0.545767 1.76756 64 52 26
0.611166 -0.39378 1.833 116 98 120
0.359998 -0.239911 1.56609 112 90 78
0.324425 -0.172103 1.52952 176 168 170
0.326286 -0.138457 1.61677 190 200 207
0.713695 -0.115469 1.78653 134 104 114
0.157372 -0.0505275 1.58392 155 145 146
-0.029065 0.02048 1.95964 172 159 139
-0.0531742 0.0611106 1.99176 198 186 168
0.15527 0.100361 1.61022 80 95 104
0.215133 0.157764 1.62798 90 109 123
-0.0415799 0.212346 1.83897 142 144 147
0.354887 0.209594 1.58663 48 50 48
0.565564 0.259114 1.58735 120 114 110
0.329229 0.52255 1.75598 23 16 11
0.456538 -0.464449 1.58926 78 31 38
0.213463 -0.37101 2.09035 84 37 50
0.343732 0.214501 1.71403 104 114 112
0.666418 0.132946 1.5588 26 83 112
0.451424 -0.455907 1.56014 123 78 90
0.443186 -0.432809 1.49429 123 82 97
0.36621 -0.390763 1.65218 138 90 113
0.333669 -0.318317 1.62903 226 232 240
0.52888 -0.186017 1.68309 178 183 181
0.208684 -0.279518 1.2443 116 87 94
0.566917 -0.204399 1.70708 146 134 130
0.78272 -0.0415513 2.31162 91 91 90
0.606666 0.223042 1.55784 199 204 206
0.535491 -0.169496 1.69023 166 172 165
0.354405 0.144504 1.26445 74 82 78
0.213353 0.0622089 1.60115 94 104 108
0.27908 -0.0754161 1.55544 58 53 38
2.17143 0.0393815 6.98574 185 184 183
0.212038 0.0224961 1.59221 116 126 124
0.449138 -0.732074 1.88942 103 54 67
0.464712 -0.737357 1.94049 93 86 89
0.471336 -0.721797 1.90624 106 88 100
0.336347 -0.4535 1.58603 105 68 86
0.304247 -0.439416 1.5793 133 103 134
0.362303 -0.442689 1.60153 132 90 110
0.237962 -0.377922 1.58292 131 88 109
0.557872 -0.374102 1.60814 82 52 68
0.376243 -0.372451 1.67871 172 162 160
0.223062 -0.353214 1.60557 155 106 138
0.368854 -0.365743 1.66426 196 194 186
0.373056 -0.364478 1.67544 161 181 168
0.271018 -0.350602 1.62204 156 106 130
0.260291 -0.343287 1.61708 141 94 116
0.260122 -0.310769 1.61515 40 44 36
0.563832 -0.311834 1.61837 72 34 53
0.393963 -0.311523 1.64234 122 122 119
0.487242 -0.299541 1.6712 184 187 182
0.550237 -0.293286 1.6344 76 52 58
0.480517 -0.289383 1.67095 120 122 125
0.327775 -0.280924 1.63709 113 110 102
0.421985 -0.279079 1.64007 236 242 244
0.45223 -0.282682 1.65688 193 194 176
0.534227 -0.282228 1.65014 99 71 76
0.577463 -0.272695 1.62568 136 96 126
0.483824 -0.272954 1.66446 210 218 214
0.435086 -0.268952 1.65871 57 64 58
0.439042 -0.25563 1.64487 216 224 230
0.425757 -0.256409 1.64585 38 47 31
0.459851 -0.256211 1.65917 7 14 13
0.441695 -0.253703 1.64942 144 159 178
0.495305 -0.256817 1.67608 186 188 180
0.43099 -0.251118 1.64728 200 213 217
0.421018 -0.250494 1.65117 190 199 183
0.435901 -0.249709 1.65153 144 162 188
0.498007 -0.254214 1.67151 166 168 156
0.426703 -0.241209 1.63894 77 85 96
0.558549 -0.240424 1.66198 150 108 119
0.537535 -0.228036 1.68529 182 190 173
0.602093 -0.224829 1.68875 52 14 39
0.542927 -0.222203 1.6844 48 45 24
0.550889 -0.222225 1.68107 92 70 58
0.573003 -0.220513 1.6795 118 73 84
0.475278 -0.198519 1.66196 152 176 228
0.676544 -0.224995 1.85861 139 149 133
0.466597 -0.196285 1.65601 54 66 90
0.676074 -0.21836 1.86344 218 226 220
0.441983 -0.185891 1.60624 162 168 174
0.504837 -0.196705 1.66342 106 112 115
0.466393 -0.187969 1.63417 196 200 208
0.453145 -0.1768 1.59877 129 132 127
0.48442 -0.179473 1.62819 226 227 240
0.516706 -0.178629 1.66024 122 128 126
0.569025 -0.18459 1.71309 60 56 52
0.645818 -0.194742 1.79695 73 37 53
0.688004 -0.19821 1.86747 74 74 46
0.57447 -0.180522 1.70423 185 172 168
0.718459 -0.190201 1.86995 110 112 106
0.573814 -0.1724 1.70425 80 81 82
0.583481 -0.167327 1.71458 186 190 171
0.472243 -0.147207 1.58219 94 94 86
0.578657 -0.161706 1.71445 180 196 182
0.58249 -0.151748 1.68001 172 174 162
0.475051 -0.142366 1.58256 97 100 88
0.49324 -0.13626 1.57499 134 133 127
0.474708 -0.13499 1.57737 186 190 177
0.301801 -0.129088 1.54932 55 70 46
0.384254 -0.127019 1.54562 128 137 122
0.403546 -0.127401 1.5596 205 215 203
0.409614 -0.123774 1.57446 198 204 192
0.657519 -0.132748 1.70977 130 86 114
0.439282 -0.115463 1.56627 103 102 90
0.454688 -0.113574 1.56444 152 160 156
0.457116 -0.109788 1.57103 158 168 160
0.680323 -0.114822 1.74605 92 38 70
0.471716 -0.0889542 1.57097 234 240 250
-0.0301394 -0.092913 1.79312 89 70 56
0.283218 -0.0742759 1.56171 34 26 6
0.259009 -0.0464697 1.58131 132 136 119
0.422659 -0.0269567 1.56006 132 138 140
0.047061 -0.0268201 1.71798 52 42 23
0.409453 -0.0206409 1.5583 209 218 216
0.65983 -0.0201716 1.85199 181 169 162
0.440208 -0.0131449 1.59993 176 182 170
0.651883 -0.0141211 1.83926 145 140 136
0.504744 0.00534419 1.60787 160 160 148
0.421129 0.0101532 1.59974 68 80 76
0.411941 0.0163927 1.58506 164 179 176
0.40859 0.0189169 1.58802 82 98 97
0.391738 0.0241158 1.57609 46 56 60
0.521645 0.0228749 1.62351 94 112 118
0.370679 0.0382736 1.57799 63 80 88
0.596534 0.0755405 1.60499 76 128 146
0.607548 0.103864 1.55139 62 110 140
0.673789 0.104775 1.55794 64 112 138
0.645246 0.118974 1.54863 64 110 138
0.651867 0.129229 1.56921 10 62 85
0.398681 0.136562 1.5782 80 110 129
0.406451 0.14384 1.55921 90 109 120
0.350587 0.183125 1.56036 62 70 72
0.595619 0.192812 1.52115 156 175 180
0.353049 0.19545 1.53088 46 46 39
0.621179 0.202943 1.54703 156 178 186
0.604494 0.212999 1.54505 121 122 119
0.449649 0.328562 1.73477 132 120 81
0.0676022 0.329067 1.72441 179 181 175
0.471349 0.376103 1.73111 114 97 64
0.320808 0.523973 1.7854 42 32 16
0.499963 0.542341 1.84061 60 59 50
0.535201 0.605121 1.93321 118 125 132
0.130139 0.59931 1.79049 94 118 156
0.439574 0.624789 1.79135 94 122 164
0.468842 -0.726622 1.91394 100 88 94
0.472328 -0.70863 1.91197 138 90 101
0.314926 -0.451899 1.60369 124 99 126
0.365932 -0.389704 1.65841 122 74 93
0.233668 -0.353424 1.57876 172 120 155
0.32923 -0.368817 1.66053 76 42 57
0.402187 -0.357855 1.67675 70 78 64
0.282025 -0.347646 1.64204 162 159 155
0.417612 -0.348785 1.68279 81 88 62
0.260529 -0.33256 1.63026 140 112 120
0.293582 -0.322291 1.63092 170 166 163
0.47472 -0.324095 1.67571 136 130 119
0.452702 -0.282086 1.64332 204 206 191
0.424986 -0.262379 1.64611 209 218 202
0.442023 -0.260543 1.65779 182 188 188
0.496397 -0.262216 1.67831 107 106 97
0.436852 -0.254753 1.64687 208 216 222
0.438636 -0.251505 1.64791 131 143 162
0.56923 -0.235412 1.67442 74 30 44
0.649375 -0.243413 1.78015 144 154 160
0.473268 -0.207875 1.66966 90 110 146
0.497949 -0.203989 1.6603 111 118 143
0.465915 -0.19692 1.6596 45 60 90
0.49602 -0.196847 1.66522 44 55 84
0.582038 -0.198885 1.70259 96 64 74
0.45427 -0.175094 1.59811 134 137 130
0.484342 -0.181029 1.63936 218 222 232
0.502775 -0.18242 1.65335 203 210 206
0.503835 -0.176534 1.65713 141 146 145
0.575303 -0.180631 1.71303 174 164 160
0.58611 -0.177919 1.72547 100 64 66
0.579673 -0.168966 1.71143 118 115 104
0.592348 -0.151937 1.6997 136 128 111
0.476125 -0.143335 1.57845 98 100 88
0.329645 -0.137277 1.54765 44 46 27
0.418695 -0.133508 1.5585 63 62 40
0.38666 -0.128269 1.55427 139 148 135
0.397965 -0.127965 1.56353 197 206 191
0.427235 -0.122364 1.56162 118 115 87
0.347456 -0.0291958 1.54096 46 43 31
0.482716 -0.0286597 1.59893 205 209 206
0.421636 -0.0268276 1.5615 143 149 151
0.161323 -0.0258421 1.60845 30 24 19
0.447357 -0.0183126 1.58069 96 98 96
