ply
format ascii 1.0
element vertex 1349
property float x
property float y
property float z
property uchar red
property uchar green
property uchar blue
end_header
1.01972 -2.29611 6.94675 178 162 157
2.30765 -0.862032 7.77835 139 124 123
2.37938 2.02351 6.69417 206 155 165
1.23373 1.81934 6.47313 178 158 139
0.213066 2.46994 6.23393 106 107 108
0.285181 2.51422 6.26751 108 112 114
-0.535069 -1.86936 8.23341 115 97 58
-0.568029 -1.76274 8.31076 167 154 112
1.70415 -0.299646 6.34255 92 58 52
-0.250916 -1.88969 8.06965 38 24 13
-0.54035 -1.88236 8.23766 164 149 106
1.53354 -0.885167 6.7229 182 163 143
1.08426 1.08416 6.49004 158 162 160
1.07641 1.57014 6.51837 110 94 86
0.946198 -0.270483 6.29732 204 230 234
0.996314 1.92796 6.45178 122 106 93
3.02312 2.66982 7.10336 163 92 83
-0.721761 -1.54499 8.37377 156 144 108
1.07484 1.10374 6.51037 163 166 164
1.69197 2.04707 6.83477 97 60 35
0.573415 -2.57819 6.98473 92 88 88
0.812454 -2.41122 6.81779 71 67 66
-0.523329 -1.74178 8.36536 104 92 66
-0.692719 -0.820509 8.09815 30 17 6
1.384 0.822859 6.58612 148 145 138
1.0255 -1.29683 6.93973 79 50 42
0.82322 -1.01862 6.96764 138 146 148
0.822479 -0.861348 6.67584 104 73 58
1.14101 -1.27356 6.91194 220 193 178
1.294 1.7533 6.43993 108 69 34
1.12255 1.8077 6.44426 185 170 138
1.30193 2.10072 6.42586 126 99 44
1.1908 1.87038 6.42111 210 186 106
1.13119 1.81549 6.43958 204 191 149
0.282409 2.54922 6.2484 113 110 105
1.10542 1.77255 6.44599 70 51 40
1.69544 0.78378 6.7126 104 59 46
1.11247 1.71742 6.47347 71 46 22
1.82275 -0.213961 6.33502 201 188 182
2.46999 -0.180788 6.88257 136 125 108
1.55321 -2.60906 7.0113 112 103 98
1.82608 -2.50491 7.14877 180 165 156
0.782499 -2.24622 6.88027 93 88 94
1.25299 -2.23365 6.8104 228 216 210
0.756599 -2.22125 6.8795 52 46 48
1.32435 -2.11453 6.8044 188 158 143
1.46029 -2.09131 6.75744 118 80 52
1.54807 -2.02984 6.78892 248 238 230
1.43762 -1.89319 6.7638 78 42 36
1.45019 -1.79427 6.77553 170 105 77
1.4421 -1.42914 7.36955 92 60 42
1.02775 -1.2471 6.82434 112 82 69
1.25356 -0.695859 6.45998 178 141 134
1.49227 -0.406841 6.41936 246 235 240
1.66658 -0.365762 6.38634 134 83 72
1.14938 -0.380691 6.29684 100 63 60
2.02744 -0.218637 6.3826 124 110 106
1.09685 -0.216077 6.27325 190 194 180
1.02282 -0.196107 6.27069 101 100 101
1.95066 0.634371 6.83959 128 96 84
1.29998 0.700156 6.55376 184 170 162
1.18865 0.718417 6.52366 180 178 174
1.38035 0.769261 6.55845 132 116 106
1.78195 0.814033 6.69416 221 159 146
1.41953 0.792512 6.5697 116 98 84
1.64559 0.809884 6.59587 180 120 107
1.58875 0.868166 6.60742 84 50 42
1.81864 0.916026 6.70017 247 224 190
1.71137 0.902853 6.64004 138 82 75
1.60247 0.924973 6.59571 230 202 205
1.50608 0.968528 6.57397 126 108 105
1.54345 1.14565 6.5713 140 125 114
1.65603 1.19677 6.62025 196 184 170
1.84077 1.29539 6.68115 160 111 97
1.68218 1.38898 6.61592 132 119 109
1.61074 1.40772 6.55776 225 210 172
1.32673 1.4283 6.54441 126 114 105
1.37201 1.4482 6.52803 82 68 55
1.37737 1.4891 6.50495 198 180 144
1.41989 1.54727 6.49004 116 84 40
1.73719 1.67318 6.57543 160 142 106
1.8102 1.70692 6.57875 149 136 116
1.42296 1.64824 6.49279 110 84 50
1.75913 1.72021 6.59557 224 208 170
1.03991 1.61518 6.46357 73 51 42
1.01865 1.63134 6.47889 188 182 170
1.63775 1.73631 6.50445 234 220 174
0.856571 1.71015 6.45289 174 178 172
2.8136 2.26266 7.00746 102 66 62
1.5422 1.95142 6.46305 211 192 158
1.67506 2.05151 6.50223 104 70 37
2.94208 2.47964 7.13087 101 59 56
2.84379 2.50804 7.0539 228 170 176
1.34445 2.07812 6.37012 176 146 76
3.03969 2.65951 7.04648 98 61 38
1.26502 2.15483 6.40286 200 192 181
2.3291 2.52163 6.80767 112 56 52
1.35268 2.24815 6.44106 108 97 90
1.51203 2.26783 6.40219 191 166 140
1.39903 2.27632 6.43959 107 92 84
1.44987 2.28915 6.44023 99 86 76
2.56629 2.6529 6.88213 198 157 136
2.64619 2.74553 6.87799 120 56 36
1.88106 2.70467 6.49676 109 60 57
0.487792 2.49148 6.22918 162 172 170
0.266254 2.53104 6.31018 98 94 96
0.391596 2.5704 6.2315 128 124 121
1.72307 2.91399 6.40887 125 76 70
1.54523 -2.03881 6.79873 245 228 220
1.30006 -1.99627 6.70355 182 153 138
1.28403 -1.83002 6.71229 124 88 71
1.3115 -1.79143 6.74968 156 124 108
1.44531 -0.936301 6.66905 136 112 114
1.33263 -0.0114526 6.23109 36 21 21
1.30338 0.176037 6.21479 132 109 88
1.75964 0.670932 6.72398 85 46 28
1.80753 0.766864 6.55159 218 163 158
1.23457 0.687843 6.53831 66 38 27
1.37503 0.760523 6.551 119 101 90
1.5803 0.862463 6.60069 153 130 122
2.00159 0.971549 6.80259 228 198 182
1.50086 0.954199 6.55319 144 128 124
1.86266 1.10033 6.67808 235 194 192
1.52731 1.13856 6.6056 155 141 133
1.5533 1.14423 6.58741 74 50 40
1.84013 1.27735 6.69349 158 102 88
1.54237 1.34079 6.54377 182 185 175
1.70283 1.41454 6.60533 114 95 72
1.3881 1.40143 6.51593 188 182 166
1.36406 1.48625 6.49476 213 196 151
1.41935 1.55075 6.48396 124 93 50
1.73062 1.72123 6.58596 210 186 139
1.53696 1.95839 6.45417 211 192 160
2.17962 2.16151 6.79718 205 211 202
1.66441 2.04938 6.50257 101 65 30
1.71481 2.08675 6.51317 188 176 158
1.23314 2.13964 6.44357 108 76 38
3.07404 2.66225 7.1105 98 52 34
1.34197 2.23406 6.43655 125 115 110
2.32636 2.51627 6.78805 132 72 68
2.21208 2.87415 6.67785 114 60 42
0.875616 -2.41275 6.87872 139 128 128
1.31125 -2.14603 6.74847 157 116 93
1.66373 -0.767827 6.59231 164 132 91
1.77267 -0.358249 6.39398 182 126 110
1.64018 0.940397 6.63208 218 192 194
1.48857 0.948548 6.56292 188 178 172
1.70177 1.14308 6.63387 124 76 66
1.38156 1.41977 6.51053 185 182 172
1.8491 1.74681 6.69826 160 144 111
1.41862 1.63098 6.48706 126 96 59
1.73485 1.75933 6.60354 248 233 189
2.31942 2.05282 6.86476 154 133 134
1.25996 2.06165 6.42853 198 164 62
2.83822 2.50407 7.0427 228 170 180
-0.0646964 2.28587 6.2462 114 112 114
-0.286682 -2.02579 8.23482 179 166 125
1.16552 -0.80374 6.56792 180 148 148
1.6362 0.95046 6.63524 228 202 204
1.76969 1.03591 6.653 128 81 70
1.00785 1.67105 6.47689 176 180 168
0.858611 1.70475 6.44968 186 196 192
1.21407 1.80733 6.46187 190 178 156
2.28781 2.03979 6.81056 153 130 130
2.27292 2.17051 6.83866 140 113 111
2.16975 2.12722 6.80022 205 214 206
1.35858 1.96068 6.46192 161 122 60
2.83027 2.48758 7.01208 223 166 172
1.26628 2.20349 6.45763 183 180 170
1.34395 2.23646 6.44305 88 72 62
1.24645 -1.89753 6.75376 208 181 166
0.958775 -0.247755 6.24598 200 222 226
1.92191 -0.0973126 6.25549 153 124 110
1.78769 -0.0670773 6.28716 212 201 194
1.21623 0.646387 6.50691 70 42 29
1.29383 0.705121 6.52381 176 158 150
1.62875 0.945385 6.58407 238 203 206
1.42756 1.61623 6.47768 87 55 20
1.05872 1.65282 6.45971 86 64 44
1.70791 1.76996 6.55815 250 240 194
1.34563 1.95584 6.5127 232 206 139
1.37712 1.93906 6.45561 116 55 12
2.07122 -0.272655 6.48261 222 209 202
2.13187 0.551281 7.04955 38 12 3
0.864821 1.70037 6.44953 189 200 195
1.51417 2.00428 6.47323 232 210 166
1.11434 2.1283 6.44185 82 54 18
1.95434 0.689347 6.7677 65 32 23
1.2887 -2.06034 6.70636 241 230 224
1.54614 0.771907 6.59481 81 48 36
1.551 0.918492 6.57114 170 145 143
1.57424 1.35485 6.56941 137 132 121
1.26926 1.39806 6.52078 92 81 73
1.29245 1.46436 6.51099 242 231 199
1.19727 1.44926 6.48458 206 188 150
0.898915 1.68538 6.44694 143 138 132
-0.650247 1.95802 7.11358 70 67 64
1.54496 2.25704 6.44441 161 126 64
1.44498 -2.09797 6.77359 158 126 105
1.60964 -0.562068 6.42489 117 89 86
1.63399 1.19685 6.59759 191 177 166
1.1135 1.40385 6.48519 161 153 148
1.66 2.04547 6.51216 92 52 14
1.52123 2.25771 6.44487 165 128 56
2.55443 2.66623 6.89548 174 120 111
1.23735 -0.0671477 6.29481 250 252 236
1.64433 1.19714 6.6143 186 172 162
1.00257 1.89695 6.4375 99 80 60
-0.659952 1.86557 7.14844 156 154 146
2.33453 2.48772 6.80073 102 48 42
1.12078 2.11463 6.41464 105 71 19
1.21031 -1.89845 6.70834 199 169 153
1.16786 -0.743522 6.4453 236 198 203
1.37195 0.847834 6.57587 172 176 166
1.73321 -0.312962 6.37693 94 53 42
1.4193 -0.557265 6.40313 82 46 26
0.852704 0.190403 6.13486 116 99 90
1.70422 1.13644 6.62175 118 70 64
1.11905 1.75802 6.4287 126 106 88
1.32649 2.06744 6.40861 108 79 36
-0.638775 1.96061 7.04713 83 82 82
1.21725 -1.85632 6.69805 188 158 146
1.48915 1.81138 6.43752 234 148 90
0.850182 0.525361 6.34986 80 54 36
1.21827 -1.94623 6.68391 216 189 176
1.68852 -0.0207522 6.34009 42 26 30
0.974047 1.72463 6.46165 170 170 162
1.52239 1.05541 6.5639 79 47 40
2.00464 -0.287404 6.39577 196 187 182
1.07822 1.10652 6.50932 140 137 132
1.13298 -0.676419 6.46749 248 232 233
1.32995 2.15604 6.44521 98 70 43
1.03894 1.51482 6.50034 140 136 130
1.40117 2.00204 6.42574 180 153 105
1.08167 1.51353 6.47556 80 61 48
1.16874 0.696285 6.45558 102 91 83
1.12446 1.06639 6.5109 106 100 94
1.42979 1.62876 6.47606 87 56 18
1.59199 1.42301 6.56242 220 200 136
1.54552 1.43851 6.55449 203 182 128
2.09153 0.416373 6.78828 54 31 17
1.72287 -2.6021 6.9999 40 30 25
0.866207 -2.48071 6.85889 92 86 90
0.786481 -2.33471 6.85956 90 86 90
1.4925 -2.10623 6.77827 109 71 42
1.30886 -2.00399 6.70542 172 146 135
1.46832 -1.92969 6.75863 64 18 10
1.15438 -1.30186 6.87682 210 195 168
1.37648 -1.00531 6.65227 234 182 181
1.42228 -0.969783 6.71443 211 171 168
1.12445 -0.670404 6.45915 255 246 250
1.70455 -0.270241 6.40708 50 26 20
1.98117 -0.237776 6.43043 92 66 59
1.70471 -0.142853 6.40493 66 59 68
1.89522 0.299159 6.29513 190 156 138
1.61403 0.411086 6.46718 66 34 22
1.31672 0.691875 6.53291 178 164 152
1.78237 0.733254 6.68762 143 97 82
1.20073 0.711394 6.52164 188 188 182
1.37786 0.764104 6.5466 109 92 78
1.79197 0.817302 6.68463 224 162 150
1.82793 0.844898 6.68196 136 86 76
1.54947 0.851755 6.58772 184 168 158
1.8217 0.904743 6.69306 244 226 190
1.62454 0.925516 6.65567 210 179 176
1.89573 1.04254 6.70795 127 84 53
1.77085 1.05735 6.65525 95 60 56
1.94338 1.16141 6.71222 111 76 64
1.73317 1.14999 6.67295 120 76 71
1.84916 1.30019 6.69679 148 102 89
1.7658 1.30983 6.61886 94 72 60
1.55401 1.33764 6.50575 136 129 117
1.65826 1.36372 6.56765 130 118 104
0.0509561 1.39476 6.61306 116 76 74
1.39034 1.50071 6.54473 198 178 148
1.78416 1.66058 6.59302 202 190 170
1.71966 1.73483 6.58639 242 228 182
1.06363 1.69808 6.50497 75 58 44
1.87733 1.79339 6.65643 156 138 102
2.50157 1.9284 6.93724 214 214 206
2.598 2.00488 6.9873 127 104 101
0.848826 1.71562 6.41282 143 134 128
2.19594 2.18701 6.79202 211 206 200
2.8899 2.45099 7.06925 118 74 72
2.9433 2.46477 7.05162 78 44 40
1.27443 2.15923 6.41641 196 188 178
1.35163 2.25199 6.44694 80 67 58
1.40556 2.27904 6.4561 67 48 38
2.33255 2.52623 6.79546 106 54 49
2.25761 2.61533 6.68558 230 196 174
1.83548 2.70331 6.47717 223 214 209
0.771224 -2.35222 6.84172 94 100 110
0.874443 -2.27122 6.86144 110 100 98
0.738864 -2.27093 6.88177 12 6 6
0.721492 -2.22505 6.90416 7 4 8
1.30643 -1.999 6.69547 184 153 142
2.29324 -0.178214 6.54044 137 130 128
1.77367 0.26839 6.34272 124 100 89
1.17675 0.642867 6.53551 81 53 40
1.56568 1.1559 6.58866 66 45 34
1.56033 1.43371 6.59021 226 214 172
1.4221 1.59279 6.49325 126 95 56
1.50625 1.74703 6.45239 238 172 142
3.09447 2.41394 7.1593 182 191 193
1.85549 2.22505 6.58786 204 202 198
1.98383 2.28926 6.73633 236 186 196
3.05238 2.66619 7.07784 90 45 27
1.42764 -2.05701 6.75814 232 214 207
0.694987 -2.07488 6.90175 32 20 17
1.53631 -2.03569 6.78429 242 223 210
1.24964 -1.8495 6.74962 192 163 148
1.44933 -1.73297 6.77257 212 182 164
1.61898 -1.35737 7.35849 242 240 211
1.70588 -0.288364 6.38666 82 42 33
2.01041 -0.268409 6.40469 190 186 180
2.15052 0.560388 7.17178 72 43 31
1.54752 0.762758 6.60416 102 68 52
1.57899 0.838376 6.59346 64 39 26
1.86988 1.01832 6.77548 205 170 80
1.74939 1.29519 6.64596 71 39 28
1.41158 1.62523 6.49465 178 150 94
1.35686 1.63376 6.45848 218 188 90
1.48095 1.67049 6.50611 82 46 8
1.01207 1.63971 6.46061 182 174 166
2.59365 1.99224 6.96235 90 65 58
1.30236 2.01714 6.43517 215 185 88
2.2119 2.26321 6.77782 174 136 140
2.95532 2.46197 7.07337 86 54 50
1.97566 2.28792 6.70498 224 176 186
2.81704 2.53334 7.01953 238 179 189
2.14432 2.74361 6.61038 156 81 70
1.43391 -1.9192 6.73355 54 21 16
1.40151 -1.78283 6.74476 138 87 64
1.55886 -0.822617 6.54577 222 196 144
2.51938 -0.0866587 6.56938 80 68 44
1.55457 0.744535 6.59886 86 52 37
1.48843 1.0041 6.54909 85 64 60
1.89297 1.03946 6.69562 172 130 88
2.02346 1.17138 6.86371 157 102 96
1.57223 1.43636 6.58691 230 218 173
1.40727 1.44468 6.48523 138 120 94
1.34977 1.63115 6.47843 218 187 88
1.02546 1.76737 6.4693 170 169 161
1.73654 2.04178 6.52815 162 124 61
1.39464 1.98947 6.41175 178 150 94
1.31098 2.07627 6.40306 115 84 43
2.2917 2.36255 6.82361 108 51 47
1.23499 -1.94084 6.71579 218 193 175
1.61246 -0.556468 6.38504 134 107 105
1.71021 -0.337322 6.40366 118 66 52
1.7733 -0.0927633 6.31022 154 137 136
1.22051 -0.07449 6.26337 252 254 240
1.21122 0.0923103 6.19935 164 150 120
1.23425 0.638845 6.50947 50 19 5
1.7633 1.28342 6.65975 91 52 40
1.34919 1.60911 6.49153 223 193 103
1.75082 1.64371 6.56429 184 169 142
1.46564 1.73263 6.51913 186 158 150
1.6685 2.02684 6.52828 100 64 18
2.95591 2.35899 7.05678 206 223 218
1.49205 -0.495439 6.4212 196 173 170
0.740138 -0.469319 6.41318 58 35 28
1.90634 -0.300243 6.46825 74 46 43
1.92377 -0.0985463 6.3211 124 92 72
1.56562 0.0127639 6.2812 216 216 218
1.81351 0.919487 6.70887 182 147 130
1.7912 1.03734 6.66489 103 64 44
1.96963 1.15477 6.7883 126 78 72
1.58281 1.45833 6.59104 242 234 186
1.58766 -0.249368 6.36558 222 174 171
1.15639 -0.12351 6.39368 210 206 172
1.67665 1.39257 6.60162 128 113 94
1.18968 1.84281 6.4322 229 218 162
0.953273 -1.14133 6.80172 114 84 76
1.8761 -0.591208 6.62386 250 243 245
1.41048 0.0189559 6.2699 192 190 192
1.49041 0.97514 6.55596 102 80 78
1.10615 1.42599 6.51682 166 158 150
1.79296 1.694 6.58972 124 110 85
1.39175 2.00561 6.43039 193 164 108
2.20311 2.70314 6.68087 175 98 75
1.76935 2.54068 6.46841 164 148 142
1.78236 -2.24447 7.10168 134 104 84
1.72445 -0.169079 6.40028 74 50 54
1.57288 -0.0140487 6.53695 139 114 110
1.71043 1.72782 6.59445 188 160 108
1.66069 2.04473 6.50394 84 48 11
1.41341 1.9991 6.43217 200 176 114
1.75571 2.51372 6.44353 167 154 150
1.20558 0.119215 6.18637 152 138 110
1.11998 1.83502 6.44407 196 176 131
2.22205 2.28235 6.77776 176 131 137
1.63656 -0.374716 6.31335 170 121 114
1.26862 0.482382 6.33833 36 14 5
1.99446 2.28691 6.72013 246 193 207
1.4131 1.61971 6.50155 150 120 74
1.00322 1.7184 6.47105 176 176 172
0.943584 -0.280612 6.32395 193 210 212
0.802008 0.473633 6.32296 112 87 71
1.3061 0.686712 6.55526 104 84 72
1.42102 1.43639 6.47655 154 134 101
2.03512 0.904835 6.86362 200 153 145
1.10015 -0.265303 6.32158 142 140 142
1.60366 2.0588 6.46896 237 210 117
1.73996 1.15414 6.68562 128 82 76
1.31097 2.12744 6.40325 90 62 34
1.08593 0.733378 6.45039 161 164 162
1.54731 -0.512821 6.42312 129 101 96
1.81167 1.11657 6.68659 244 214 220
1.26226 -1.87119 6.81768 140 112 95
1.76517 2.45144 6.43456 124 102 96
1.74756 2.4516 6.42424 136 120 118
1.08125 1.58538 6.43292 111 90 64
1.3897 0.857983 6.58533 166 177 172
0.854189 1.96121 6.44846 111 103 95
0.860297 0.122263 6.13562 148 144 138
1.21361 1.98857 6.46147 175 147 66
1.55817 2.05945 6.43436 210 184 85
1.93556 -0.616791 6.67576 222 198 192
2.53794 2.10849 7.0806 239 182 193
2.03062 -0.0712099 6.8606 134 122 116
1.04612 -2.67818 6.89981 69 56 52
1.3098 -2.1359 6.71248 125 82 62
1.44869 -1.71792 6.72607 218 196 180
1.32416 -1.36499 7.44996 138 114 90
1.26423 -0.8669 6.60173 113 74 64
2.0868 -0.875362 6.91043 183 232 220
1.24519 -0.877474 6.58867 108 69 59
1.86591 -0.583678 6.51289 254 245 248
1.55343 -0.510983 6.4256 123 90 92
1.10226 -0.37441 6.37554 116 78 66
2.10109 -0.355526 6.59915 45 44 41
1.92381 -0.317203 6.49581 72 44 42
2.27649 -0.190365 6.49218 136 131 128
2.39331 -0.0764064 6.50842 24 15 12
1.31694 0.139385 6.24097 60 39 30
1.90179 0.680074 6.76914 64 34 20
1.89648 0.717157 6.73659 144 107 100
1.99591 0.758317 6.79077 230 185 180
1.83682 0.763457 6.68529 102 55 42
1.55014 0.771553 6.58597 60 28 16
1.83778 0.784405 6.71172 111 58 45
1.85552 0.869115 6.72289 116 70 57
2.04982 0.925236 6.89634 133 97 90
1.82354 0.897698 6.69423 239 220 187
1.67598 0.926538 6.65916 212 171 164
2.10577 0.983798 6.93698 158 126 118
1.91103 1.01898 6.69634 135 88 64
2.23881 1.11771 6.93682 112 114 108
2.06644 1.16114 6.81775 160 123 114
1.94637 1.15576 6.73181 96 66 55
1.0457 1.15256 6.51667 192 210 210
1.69706 1.23717 6.62709 64 43 29
1.71537 1.28308 6.62529 86 67 58
1.35904 1.66762 6.45265 203 169 99
2.65025 2.02282 6.9571 81 44 44
1.6358 2.10686 6.48196 222 190 120
2.78349 2.38247 6.90331 175 106 110
2.87011 2.43952 7.02715 121 75 78
2.91837 2.44933 7.04329 72 36 34
2.79219 2.4637 6.97717 217 162 166
1.88694 2.7031 6.4975 96 45 44
1.92129 2.69995 6.49182 126 50 44
1.82199 2.75169 6.41355 236 164 171
2.28017 2.9307 6.69596 164 116 57
1.46541 -1.82532 6.76885 234 197 192
1.48934 -0.394582 6.37849 247 232 237
0.970584 -0.248923 6.35456 205 224 226
2.37287 -0.0391982 6.53267 201 192 184
1.65205 0.391747 6.31589 112 72 52
1.26948 0.486061 6.33421 34 15 6
1.77978 0.688364 6.68841 74 34 18
1.77095 0.73108 6.67153 130 86 72
2.1416 0.912625 6.91337 74 47 32
2.00538 0.958151 6.80435 236 198 200
2.22058 1.08799 6.92814 140 141 138
2.23111 1.13295 6.94084 152 155 150
1.62663 1.18004 6.62744 146 129 118
1.9753 1.21767 6.75613 202 191 182
1.74775 1.30415 6.63019 80 60 50
1.78535 1.64428 6.59267 194 184 168
2.51079 1.81566 6.97153 116 103 94
1.37483 1.64625 6.49769 216 184 88
2.49154 1.92478 6.93841 202 205 202
2.52534 2.07119 7.01018 246 188 206
1.45398 1.98229 6.58313 150 76 27
2.06595 2.16511 6.7427 190 182 180
2.80046 2.37218 7.01432 216 132 130
1.85276 2.23484 6.60087 164 146 145
2.13619 2.81664 6.6611 208 126 118
1.48148 -2.11914 6.79853 165 124 101
1.75041 -1.56207 7.49399 40 24 12
1.71893 -0.776985 6.63491 114 70 60
1.99207 0.77311 6.86359 234 186 180
2.19239 0.842385 6.99781 216 224 216
1.99558 1.18662 6.82763 96 57 49
1.79095 1.63176 6.59985 191 184 166
1.73243 1.66178 6.56675 154 130 84
1.05362 1.66984 6.47148 140 122 112
2.56748 1.94897 6.98904 74 55 45
1.50972 1.76482 6.50061 243 176 146
1.75905 2.05138 6.56414 156 122 62
2.06928 2.17023 6.77196 190 183 181
2.19706 2.69376 6.67784 206 112 96
0.483722 2.49085 6.25639 194 200 200
0.726541 -2.383 6.87652 142 153 166
1.21233 -2.37158 6.82549 228 218 216
1.8384 -2.3303 7.10087 236 220 207
1.78043 -2.23413 7.03049 162 134 112
2.3972 -0.0893277 6.52923 23 16 12
2.22802 0.620416 7.05346 142 123 98
1.88336 1.01652 6.89996 203 162 74
2.33518 2.51957 6.83143 110 54 46
2.56124 2.65459 6.86317 218 180 144
0.694651 -2.07194 6.86083 34 27 22
1.52907 -0.755962 6.5195 233 234 198
2.08414 -0.407114 6.51996 83 89 87
2.35488 0.0428494 6.47543 208 189 176
1.2939 1.74539 6.42736 103 64 24
2.22978 2.21884 6.76737 132 100 100
2.33546 2.4869 6.79371 90 36 30
1.91795 -0.787854 6.74203 100 88 86
1.22347 -0.0619038 6.23433 254 254 234
2.00184 0.712384 6.85477 57 26 16
1.91304 0.796558 6.87391 138 84 74
1.48156 -0.394787 6.43119 239 217 222
1.88872 -0.0987913 6.32705 86 57 44
1.55386 1.90136 6.47754 130 83 47
1.61572 -0.555398 6.3839 120 94 94
1.75111 1.25711 6.65242 96 51 38
1.57818 -2.59187 6.98396 83 78 75
1.43001 -1.78059 6.7887 137 89 64
1.81502 1.04358 6.55467 95 56 28
1.78917 1.09745 6.61676 244 213 218
2.51899 1.84308 6.91605 82 62 57
1.62785 1.76428 6.51948 194 169 114
3.00794 2.46384 7.07037 80 62 56
0.320231 2.62598 6.17269 221 219 186
0.356737 2.67823 6.17158 150 138 114
1.59087 -0.0453174 6.29625 146 138 138
1.20121 0.115123 6.21577 155 142 111
1.18134 -2.2566 6.79687 110 88 77
2.51158 -0.0447834 6.63238 176 174 160
1.23244 1.37763 6.50072 143 140 130
1.61219 2.08392 6.54015 230 203 103
2.16815 2.74173 6.65979 152 71 62
1.80717 2.70336 6.51226 195 198 192
1.45581 -1.72666 6.73972 216 193 178
1.59605 0.839891 6.59596 58 26 16
1.71117 1.19064 6.59791 72 36 29
1.43965 2.01429 6.5128 200 174 104
2.85563 2.34159 7.04194 89 52 44
1.24693 1.39483 6.57092 140 138 128
0.854936 -1.18593 6.7767 164 164 158
1.78982 0.119927 6.34394 174 152 140
1.64008 0.192144 6.38442 126 106 94
1.03674 2.123 6.44463 97 82 74
-0.666452 -1.59644 8.20479 105 88 53
1.67711 0.944243 6.58974 242 198 202
1.73886 -2.81457 7.21346 108 111 118
1.644 -0.361144 6.35535 178 142 140
2.05373 1.15798 6.80616 151 110 100
1.88056 1.98707 6.60825 152 136 104
1.01144 2.07997 6.45214 67 46 34
2.3936 -0.0829977 6.5373 18 16 12
2.19569 2.9603 6.66899 224 122 110
2.13681 0.834961 6.9533 138 128 118
1.49873 1.05704 6.56739 45 23 15
1.49346 1.77405 6.49846 240 173 140
1.60764 2.07456 6.53932 228 204 112
2.50599 2.59264 6.90181 118 68 62
1.39141 -0.0478997 6.22761 68 34 30
0.821143 -2.59447 6.90356 161 172 183
1.63877 0.947865 6.64868 232 197 196
1.07126 1.74218 6.47427 146 131 123
1.97631 2.28413 6.69155 232 171 182
0.694162 2.22323 6.35526 120 108 102
-0.546118 -1.73216 8.17041 122 110 78
1.6259 2.10052 6.48962 210 177 85
1.81807 2.68617 6.48408 190 194 188
1.58017 -1.10378 6.67905 198 157 150
1.64871 -0.236748 6.39407 200 164 160
2.35184 0.0787379 6.47552 204 185 169
1.91348 -0.314077 6.45231 70 44 40
1.55956 0.70642 6.55038 76 49 35
1.53983 -0.189923 6.30312 190 146 140
0.762697 -0.416375 6.41722 58 39 32
1.53545 0.0131842 6.2686 166 152 144
1.6973 0.781613 6.65448 120 72 58
2.03652 1.67701 6.16971 160 151 130
0.846787 1.96339 6.44946 131 128 122
2.59252 2.69587 6.86395 203 175 117
1.69884 -2.19145 7.15531 218 196 187
1.58378 -1.20318 6.75266 128 116 90
1.85718 1.97154 6.59941 170 136 74
1.36413 1.81036 6.72829 181 125 58
1.01023 -0.766359 8.17933 80 78 63
1.77053 -2.21802 7.00213 98 72 56
1.76448 -1.01681 6.82614 246 222 227
1.75277 1.50056 6.63002 142 124 90
1.68514 1.13224 6.60474 108 66 57
2.88731 2.4904 7.03137 190 128 134
2.04557 -1.69467 8.17102 96 78 58
2.57885 2.69573 6.86211 201 166 115
1.56264 -2.84854 7.01025 188 218 235
1.91588 -2.25659 7.16017 222 196 176
1.73656 -1.4755 7.48532 144 127 110
1.20563 -1.32676 6.92751 185 166 140
2.08002 -0.854015 6.85539 183 234 220
0.932487 -0.113132 6.14777 124 132 132
1.61397 0.889929 6.66784 70 32 24
1.92709 0.921301 6.76781 115 63 52
1.89951 1.04106 6.7086 110 66 42
1.74565 1.12259 6.6603 174 126 126
2.0134 1.18058 6.76615 100 74 64
1.61831 1.46139 6.64744 250 240 192
2.8033 2.41792 6.96683 152 90 99
1.25315 -2.90131 6.95308 148 158 170
1.3499 -2.66835 6.93357 166 158 159
1.06657 -2.61402 6.91811 102 84 78
1.9113 -2.52084 7.24653 28 18 16
1.89844 -2.27997 7.17248 232 207 193
1.76176 -1.5611 7.46493 19 8 0
1.34628 -2.6691 6.93206 140 132 130
1.19652 -2.65921 6.93465 40 26 22
0.68667 -0.707257 6.98914 160 163 160
0.687919 -0.513869 6.52072 78 72 68
1.93644 -0.335172 6.48567 90 54 52
2.39702 -0.0918797 6.55021 16 12 8
2.35114 -0.0559793 6.49542 220 210 200
2.52854 -0.0460912 6.72477 180 182 164
1.68111 0.0169086 6.2879 34 16 19
1.71912 0.0722093 6.28704 161 143 134
1.29414 0.151295 6.30119 90 72 58
1.84733 0.250861 6.30958 44 18 14
2.10452 0.754297 6.90878 138 110 94
1.69958 1.03375 6.66051 230 168 162
1.89399 1.03784 6.69373 168 124 72
1.69687 1.14454 6.67441 118 68 60
1.97389 1.18916 6.79319 90 52 44
1.58397 1.41124 6.51084 224 208 158
0.913917 -2.6098 6.92573 6 2 2
1.87324 -2.30686 7.17073 236 214 200
1.33336 -0.0171876 6.27601 18 6 3
1.66907 0.166332 6.33267 46 23 19
1.74607 0.739405 6.70533 148 104 92
1.82297 0.748086 6.71716 110 68 57
2.20895 0.78729 7.01597 160 156 141
1.70833 0.892587 6.65246 144 86 74
1.81072 1.1185 6.72793 232 194 197
0.890161 1.69135 6.46164 131 120 114
1.50629 1.7567 6.49343 250 190 164
1.71904 2.10421 6.52676 194 190 177
1.51554 2.25885 6.46067 132 94 40
2.64269 2.52945 6.9067 171 80 72
2.5517 2.63144 6.84451 193 146 122
0.921913 -2.43044 6.83947 157 143 140
0.710443 -2.25844 6.87985 5 4 2
1.23265 -2.21319 6.78347 226 211 202
1.83468 0.76891 6.7753 103 58 46
2.51433 1.84672 6.98188 116 104 98
1.13181 1.84008 6.49171 192 170 112
1.67094 2.03755 6.52359 98 60 16
2.6698 2.50315 6.8998 194 93 89
0.864499 -2.34484 6.84438 58 39 35
1.16138 -2.25256 6.96897 231 214 210
1.7733 -2.09949 6.935 250 244 242
1.19839 -1.91158 6.82646 172 139 125
0.923224 -1.05257 6.73362 106 80 70
1.66211 -0.791489 6.624 90 49 42
1.91711 -0.793067 6.71368 96 78 72
0.890055 -0.741242 6.57126 176 140 134
1.12631 -0.355388 6.30557 53 24 16
0.979131 -0.107384 6.24319 96 92 88
1.47675 -0.0617659 6.28373 126 80 71
1.79198 0.0278688 6.36323 81 50 36
2.07137 0.817336 7.03391 97 61 58
1.82342 1.14931 6.67113 224 178 176
1.56242 1.71589 6.51833 118 80 20
2.32897 2.02956 6.87382 164 152 146
0.911398 -1.25983 6.89982 29 16 6
1.67167 -0.80099 6.55274 120 74 65
1.36158 -3.00662 6.95847 102 105 112
1.51631 -1.98245 6.76138 203 150 132
0.865963 0.109085 6.11403 162 158 150
1.73929 0.799572 6.68045 202 147 136
1.13673 -0.35744 6.32843 54 26 20
2.02588 -1.56016 7.75877 160 148 117
1.64068 -0.0799033 6.34309 138 132 140
3.07699 2.69074 7.16124 102 44 33
1.5384 -2.61377 6.99059 53 44 44
1.81521 0.0470227 6.31094 47 20 14
1.9568 0.604929 7.05579 96 64 46
1.98654 0.828113 6.80989 228 170 168
2.04587 1.14628 6.8229 184 132 127
0.00653204 1.27432 6.92467 72 37 26
1.70518 1.28172 6.63131 144 132 125
2.47633 2.54412 6.7278 136 88 79
0.955896 -2.54066 6.72583 8 4 4
1.7874 -2.12505 6.96981 233 219 214
1.64785 -2.03088 6.84801 182 156 144
1.78603 -1.27931 7.32595 136 121 89
2.1092 -0.357348 6.51023 58 62 50
2.3213 2.01414 6.86739 171 161 152
2.52715 2.08158 7.06197 228 165 178
1.16685 -2.4283 6.97064 223 212 206
1.45711 -2.2862 6.75903 220 202 192
1.43921 -1.72274 6.78083 196 171 156
1.36072 0.195216 6.26544 150 126 114
1.77445 0.292719 6.39204 160 135 119
1.91279 0.909862 6.75737 134 81 68
2.80833 2.28213 7.00106 118 68 67
1.3058 -1.98998 6.88197 156 128 112
1.33507 -1.7631 6.84074 161 132 118
1.54161 0.0414667 6.27639 192 176 166
2.00407 0.498365 6.7653 34 12 8
1.78988 -0.0924578 6.35022 114 96 96
1.69897 -0.00760401 6.2794 32 14 14
1.81496 0.0922755 6.35716 203 184 174
1.42823 1.61649 6.47953 78 48 16
1.28689 -2.89655 6.90695 158 177 190
1.23198 -2.30281 6.8708 92 74 74
1.14819 -0.807409 6.51681 162 134 134
1.73345 -0.341336 6.38835 102 60 48
0.963753 -0.101439 6.19377 72 67 63
2.07094 0.896586 6.85105 177 156 142
1.35501 -2.89454 6.9477 84 86 94
1.02646 -2.85332 6.9976 115 127 142
1.40664 -2.14916 6.74942 107 71 53
1.74139 -0.103855 6.33429 156 142 138
1.3131 1.98497 6.43602 201 170 90
0.830339 -2.48737 6.88307 22 15 14
0.793747 -2.46818 6.95662 2 0 0
-0.277038 -2.00765 8.12743 138 126 88
1.00518 -1.26016 6.93001 38 27 19
1.87799 -0.114207 6.30446 82 55 42
1.24391 0.468238 6.16897 61 40 22
1.99837 2.15057 6.71772 188 186 182
1.60999 2.08348 6.48959 212 180 94
3.16576 2.471 7.19017 222 213 186
2.69389 2.49844 6.92472 176 84 80
1.2154 -2.65868 6.92777 38 24 19
2.00101 -1.61634 7.95431 132 124 102
2.22401 1.14266 6.88895 150 142 138
-1.4442 2.74395 7.34263 92 61 38
-0.484732 -1.94218 8.20592 129 114 80
0.122395 0.76883 7.08296 40 24 13
1.59327 2.0787 6.47673 216 185 98
1.31493 -2.08188 6.44655 173 154 141
1.82754 -0.216023 6.39208 182 165 156
2.48778 -0.119864 6.6454 54 49 26
1.85277 0.0459466 6.25311 64 40 32
-0.789926 1.83428 7.0279 114 103 89
0.685844 -0.506202 6.56478 78 76 70
1.83726 -0.643595 6.43714 218 174 169
2.13759 -0.24071 6.49876 210 204 194
1.08889 -3.08931 7.2901 124 132 141
1.44724 -0.927439 6.67985 80 54 45
1.98377 -0.37824 6.4927 133 95 89
-0.491454 0.719152 17.4065 161 154 128
1.34698 -1.91458 6.70301 183 126 108
2.09051 -0.399472 6.51697 60 62 56
2.48086 -0.0713175 6.53034 72 62 48
1.67041 -3.10368 7.75531 161 180 190
1.02104 -2.80115 6.88344 124 136 151
1.85139 -0.596732 6.5175 220 192 192
2.37188 1.99627 6.82774 159 150 144
1.57327 -1.09339 6.65972 190 144 138
2.79734 2.29741 7.03662 154 95 91
1.43542 1.99758 6.51224 154 122 67
1.67912 0.0279266 6.4195 80 70 72
1.27616 0.499264 6.45265 19 8 3
1.45648 -0.0587652 6.2101 100 64 57
1.48206 -0.0236022 6.60835 52 26 20
1.4954 -0.0144404 6.56358 30 10 4
1.5075 1.36089 6.5897 150 148 140
2.79054 2.29028 7.01817 165 102 102
1.851 -2.9266 7.25891 158 162 168
1.7863 -2.76395 7.05616 146 162 175
1.87508 -2.46606 7.17294 182 164 152
1.93046 -2.47253 7.22018 24 24 26
2.02696 -2.40674 7.2361 136 148 162
1.9576 -2.34603 7.16265 34 31 34
1.58208 -2.25768 6.92349 169 144 129
1.26567 -2.21502 6.76814 228 210 202
1.41098 -2.16519 6.71528 120 82 63
1.95615 -2.16475 7.19831 177 156 148
1.42201 -2.00514 6.79518 128 60 40
1.4572 -1.89971 6.72692 45 12 10
2.02879 -1.97108 7.3272 32 21 14
-0.244183 -1.97314 8.10602 98 86 58
1.75674 -1.5509 7.47651 18 8 2
1.81199 -1.27788 7.53214 149 128 104
1.4582 -0.925941 6.6631 78 53 49
1.30629 -0.833379 6.46835 149 131 111
0.881261 -0.848247 6.66384 45 26 14
2.22195 -0.81768 6.83449 126 150 121
2.1577 -0.788682 6.86972 129 160 120
1.6606 -0.762649 6.60314 88 58 49
2.23087 -0.716418 6.9319 174 211 195
2.41524 -0.565632 6.92542 123 133 110
1.58499 -0.496292 6.37519 88 64 64
0.832774 -0.27667 6.25798 135 153 142
1.72259 -0.157674 6.37307 52 39 37
1.92367 -0.0905753 6.47907 56 34 23
1.73834 0.434571 6.47504 38 12 3
1.93476 0.526152 6.74723 74 49 36
2.16695 0.585797 6.96105 76 50 29
1.95201 0.632092 6.77611 96 68 56
1.90096 0.71584 6.75143 140 100 94
2.00182 0.742415 6.7918 157 120 116
2.20267 0.811877 7.07189 161 169 166
2.1405 0.812954 6.87068 209 218 212
1.83212 0.844633 6.68104 100 57 46
1.99722 0.874112 6.79148 218 160 156
2.18472 0.952009 6.94007 96 82 68
2.00717 1.18618 6.77228 92 72 62
1.54467 1.34531 6.54015 144 140 133
2.41224 1.46681 6.93971 78 64 56
2.44077 1.48616 6.94821 87 80 76
2.822 2.3808 7.03526 188 133 134
3.00828 2.43538 7.10239 190 194 195
3.04896 2.44515 7.06005 116 103 104
2.9475 2.50208 7.15465 72 30 30
3.13497 2.49353 7.1452 244 236 208
-0.0067641 2.38102 6.07729 224 215 186
1.57264 -2.84727 7.05366 167 192 216
1.59465 -2.24154 6.91365 173 152 138
1.9356 -2.16039 7.20402 226 191 175
1.98115 -2.12262 7.21543 211 178 157
1.93529 -1.53924 7.74632 123 114 101
2.01672 -1.54745 8.09604 146 136 124
2.25129 -0.932471 7.0649 214 196 183
2.23179 -0.723167 6.95317 156 194 177
2.05649 -0.66664 6.75139 64 58 42
2.15928 -0.66193 6.78035 126 147 124
2.108 -0.574402 6.72345 90 92 90
2.12778 -0.132581 6.53547 238 236 235
1.33617 0.434787 6.3731 98 62 45
0.858586 0.539634 6.47144 88 60 46
1.87352 0.8041 6.71347 172 120 112
1.95923 0.870371 6.84793 216 154 148
1.92572 0.926563 6.73666 120 69 56
1.72793 1.77181 6.6409 244 228 172
1.1103 1.77672 6.47905 89 70 56
1.91217 1.87994 6.64251 140 120 89
2.80195 2.31753 7.02142 172 101 98
1.87414 -2.85057 7.23043 136 144 154
1.83863 -2.51586 7.14757 174 162 152
1.15544 -2.30108 6.78401 132 110 98
1.46145 -2.23669 6.7809 220 198 189
1.96224 -2.34367 7.2095 38 36 36
1.75223 -2.23098 7.03556 122 100 85
1.78888 -1.18485 7.0153 138 113 89
0.863424 -0.855025 6.67161 54 36 23
2.19319 -0.681979 6.82924 126 149 130
2.02074 -0.423434 6.37716 219 168 167
2.09367 -0.413679 6.47595 86 86 78
2.51195 -0.272317 6.59953 168 216 204
2.11578 -0.135353 6.53353 224 222 219
1.55773 -0.0765435 6.27625 121 82 76
1.49773 -0.0533022 6.14111 55 24 16
2.03473 0.770902 6.83831 49 16 9
1.94297 1.15346 6.72083 142 95 88
1.4161 1.54461 6.4428 126 96 56
1.29888 1.97787 6.4681 204 176 96
2.99093 2.40908 7.05001 200 216 220
1.48164 -2.12367 6.78161 114 81 62
2.07181 -2.21683 7.35512 87 101 116
1.45926 -2.0593 6.79984 224 189 175
1.88163 -1.71839 7.69176 28 14 6
2.22138 -1.79113 8.7814 193 182 156
1.89456 -1.52294 7.62902 72 62 56
1.87959 -1.43377 7.54274 158 146 127
1.70452 -1.23025 7.01861 155 138 102
2.32158 -1.51516 8.83007 180 178 164
0.843421 -0.88706 6.74615 58 40 27
1.85089 -0.582998 6.66517 246 220 220
1.94267 -0.0816109 6.30383 84 62 50
1.29659 -0.0533589 6.27838 24 7 2
1.8367 0.28388 6.32432 172 148 132
2.24626 0.556751 7.07559 112 81 54
1.13194 0.530204 6.43126 94 73 46
1.81889 0.782973 6.6858 150 97 87
2.81995 1.55436 7.55926 145 167 151
2.41446 1.45206 6.87394 73 61 54
2.8161 2.2917 7.00693 114 60 56
0.595843 2.26097 6.3138 146 148 146
2.31079 2.64142 6.76587 206 182 144
1.24316 -2.09911 6.6813 229 218 218
2.0912 -2.22839 7.37429 106 124 140
2.0317 -1.60244 8.15719 133 118 96
1.95252 -1.04471 6.92754 159 166 156
1.02997 -0.858686 6.52178 93 54 42
2.4332 -0.695674 7.04451 147 172 130
1.99087 -0.582544 6.91207 236 204 200
1.91657 -0.287717 5.85769 60 36 35
1.10368 -0.280287 6.24392 91 76 71
1.01534 -0.175795 6.24412 110 110 102
2.36133 0.0302749 6.4389 200 184 172
1.75393 0.787589 6.59074 176 122 110
-0.816606 1.74772 7.1881 48 34 18
1.85809 1.99098 6.62807 155 124 70
2.56188 2.60617 6.82959 149 93 82
0.864753 -2.23578 6.77771 130 113 106
1.14632 -0.377485 6.2932 84 50 44
1.90637 -0.100272 6.30975 66 40 29
1.83975 0.0481214 6.26456 68 40 30
2.3447 0.0196796 6.48513 212 196 178
1.77111 0.285816 6.36977 177 152 134
2.08328 0.662462 6.92578 102 69 51
2.80134 1.57177 7.62108 176 200 189
0.606828 2.23966 6.33401 172 181 182
2.31983 -0.063568 6.47264 223 206 193
2.53536 -0.0341438 6.69545 244 236 208
0.999758 2.01774 6.44903 64 40 23
-0.482432 -1.91902 8.21392 116 104 62
0.730007 -1.15023 6.8988 172 193 188
1.25141 -1.20972 7.32249 234 205 212
1.2358 -0.889934 6.44785 140 93 84
2.09452 -0.863063 6.75043 150 195 172
1.83741 -0.645496 6.63306 230 182 174
2.21152 0.234611 6.50905 180 151 133
1.73556 -2.30161 7.07363 231 212 204
1.66833 -1.46997 7.43059 181 160 139
2.18835 -0.76239 6.84935 81 100 73
1.78481 -0.354027 6.43214 135 91 80
2.01997 0.821637 6.80465 194 152 148
2.09535 0.95704 6.89602 127 96 90
2.83159 1.57427 7.55929 81 88 76
2.48612 1.52096 6.97066 137 140 138
2.52388 2.08618 7.03625 228 166 176
0.544106 2.40901 6.29388 118 114 110
2.31466 2.54796 6.78762 130 74 72
0.352869 2.81318 6.22068 162 151 146
2.21828 2.96977 6.67098 191 102 92
1.50375 -2.60938 6.94156 93 89 84
1.39645 -1.95381 6.75014 95 41 26
2.16158 -0.726652 6.79039 82 95 68
1.66307 1.46393 6.59958 226 210 152
2.80435 2.43491 7.04019 151 81 85
2.6356 2.55233 6.92978 130 54 46
0.361575 2.79239 6.17649 124 109 100
1.93865 -2.22269 7.19967 178 155 140
0.834511 -0.94917 6.81491 52 38 28
2.20281 -0.746255 6.98945 116 142 115
2.13133 -0.735286 6.87323 84 92 60
2.04076 -0.681312 6.75041 60 49 30
1.26902 -0.652543 6.42971 72 46 36
2.01712 -0.30924 6.42206 140 128 128
2.81849 1.54352 7.44971 80 92 76
1.4928 1.75748 6.53708 230 176 160
-0.399329 2.04985 6.48298 83 84 83
0.286594 2.62103 6.19037 246 240 208
2.6007 2.78523 6.84456 192 152 72
2.08479 2.79103 6.64241 184 94 91
0.712711 -0.476224 6.45045 73 66 60
1.7661 2.04432 6.60419 122 90 42
2.8125 2.2451 6.99621 115 66 66
2.6571 2.51696 6.86086 155 71 66
1.77787 2.54583 6.44604 165 154 152
1.91849 -2.56186 7.29257 16 10 6
1.8637 -2.28986 6.74193 193 174 161
-0.327295 -1.70422 7.68513 84 70 42
1.01995 1.16012 6.52146 155 174 176
1.42152 2.02226 6.41683 187 163 83
1.9899 -2.34567 7.40024 32 25 20
1.38157 -2.13258 6.68034 108 74 56
1.1758 -2.245 7.11164 218 209 208
1.37249 -1.7495 6.83461 163 137 122
1.44257 -0.135574 6.28672 139 96 87
1.96947 1.16809 6.80027 82 44 34
1.29575 1.50274 6.53121 200 178 118
2.42651 1.89114 6.91913 163 164 156
1.64077 -0.798982 6.57486 81 45 34
1.68042 -0.000393633 6.34033 82 70 68
1.48504 0.370784 6.49816 114 78 58
3.17701 2.00929 7.72843 202 223 226
1.75369 2.0171 6.53249 153 114 44
1.96985 -0.584874 6.58648 230 192 188
0.894233 -0.267641 6.32265 164 179 170
1.68578 0.21022 6.48409 34 18 15
0.150452 0.83868 7.00647 42 18 8
-0.197157 1.45209 7.15731 60 20 12
0.866043 1.69508 6.45169 142 142 135
1.68182 -0.745062 6.55102 94 67 66
0.757779 2.58452 6.37609 137 153 156
2.16677 -0.581385 6.7518 55 64 50
2.05589 0.795942 6.84535 42 17 8
1.05636 -3.33565 8.38436 38 39 42
1.47259 -1.34011 7.33662 214 208 175
1.09028 -0.463255 6.43951 158 114 105
2.56318 1.95832 6.99949 100 88 86
1.94662 -2.19353 7.21291 113 100 88
2.46167 2.57631 6.76403 152 116 92
1.36056 0.444997 7.19378 86 56 36
2.23769 -0.873637 7.7477 151 174 150
1.80604 0.0267835 6.157 56 34 26
1.19376 -2.08336 6.24105 48 38 30
1.68754 0.80542 6.64593 175 122 112
1.58871 0.932744 6.59425 194 146 140
2.6992 2.09167 7.04436 94 60 60
2.92131 2.4432 7.0578 56 21 16
1.59385 2.03395 6.47606 219 195 128
2.92227 2.39832 6.9511 64 28 26
1.78782 2.49402 6.43292 124 100 96
1.77489 2.04556 6.61972 122 88 34
1.87534 1.83126 6.65934 168 140 97
2.21524 2.24901 6.8036 130 100 98
1.47775 -0.0841915 6.41507 102 62 52
1.11341 1.73341 6.51835 58 34 14
2.15191 0.404103 6.53477 121 86 71
2.49316 1.7131 6.93326 129 122 114
2.74433 2.1129 7.07046 114 102 104
2.24703 2.0995 6.69495 158 148 142
1.71332 2.91333 6.42035 107 67 64
1.91474 1.85775 6.6326 136 112 83
1.49357 -2.89015 6.95722 86 86 83
1.83527 -2.95188 7.26067 140 144 146
1.86184 -2.907 7.28586 150 157 162
1.66084 -2.74625 7.12934 62 58 58
1.89248 -2.5364 7.16215 10 6 4
1.96776 -2.3861 7.22859 24 22 24
1.61842 -2.2579 7.02033 106 82 70
2.06628 -2.28127 7.39831 55 57 63
2.0704 -2.20152 7.37239 128 143 160
2.10806 -2.02273 7.23329 72 62 57
2.04838 -1.94762 7.47739 136 146 156
2.01954 -1.83645 7.22388 50 38 31
1.94151 -1.63189 8.2127 214 204 173
2.04508 -1.4865 8.08571 144 138 125
2.13907 -1.44194 8.10368 130 123 102
2.21911 -1.39758 7.97552 87 69 58
2.40017 -1.18616 7.80772 91 78 66
1.2442 -0.876191 6.57335 80 50 38
2.2466 -0.9272 7.08995 184 171 160
2.13967 -0.851201 6.92039 156 201 178
2.16838 -0.657548 6.7411 113 134 110
1.92444 -0.522196 6.51494 240 218 218
2.4713 -0.56234 7.06238 185 202 190
2.04492 -0.339901 6.56691 92 86 83
2.44621 -0.317432 6.81917 185 230 220
1.6149 -0.260111 6.50468 198 162 160
0.907982 -0.164765 6.31508 177 184 179
1.62493 -0.116808 6.29504 68 40 36
0.966697 -0.0703709 6.09612 105 102 92
2.5646 -0.0715938 6.64575 92 84 50
0.88349 0.0161042 6.15625 126 124 114
2.28565 0.75217 7.56677 170 179 166
2.07353 0.892783 6.84952 176 158 146
2.15539 0.931858 6.91139 82 63 52
1.99245 0.944233 6.81438 224 178 178
1.90318 0.948252 6.64581 196 156 95
2.21293 0.968054 6.94883 106 96 85
1.85373 1.09152 6.70291 202 167 164
2.62548 1.15213 7.65641 148 116 110
1.91359 1.16125 6.71194 204 160 152
1.53042 1.3384 6.43128 116 108 98
2.83924 1.56487 7.47516 78 84 70
2.44185 1.56032 6.96533 193 193 190
2.51287 1.80649 7.01333 72 58 51
2.52529 1.93722 6.93574 199 199 194
2.55156 2.07037 7.00125 236 173 183
2.5156 2.0611 6.92837 230 163 171
0.627579 2.31296 6.33397 170 166 156
0.207954 2.45544 6.1563 75 78 76
3.01137 3.03578 7.87509 73 36 12
1.92444 2.7962 6.67433 232 170 176
2.12257 2.76836 6.66884 133 54 48
2.27533 2.92782 6.65183 128 90 33
1.68682 3.00995 6.39137 156 127 118
1.27049 -3.22694 7.37538 73 71 70
0.926689 -3.03291 6.97452 39 41 42
1.82416 -2.97609 7.32976 125 126 129
1.95879 -2.2063 7.18695 35 28 22
2.02469 -2.12391 7.30474 36 30 30
2.03174 -1.95221 7.26477 48 33 24
1.66875 -1.46836 7.41081 176 157 138
2.02858 -1.49484 8.09398 133 122 108
1.35685 -1.30402 6.89243 184 174 142
2.1514 -1.46984 8.20378 129 120 94
2.26523 -1.31841 7.75932 138 134 129
1.39023 -1.15418 6.78912 166 130 125
1.86471 -1.17451 6.88968 122 106 80
0.917399 -1.0577 6.76921 86 63 56
1.70442 -1.04038 6.89102 222 190 195
1.90915 -0.9581 6.80807 198 169 166
2.53483 -1.02956 8.00696 124 110 88
1.93647 -0.851149 6.68146 99 87 80
1.20043 -0.834263 6.55787 74 42 36
0.564934 -0.631181 6.62457 180 196 187
0.741466 -0.555013 6.44345 156 153 143
2.47213 -0.546471 6.9906 176 193 178
2.23469 0.633331 6.96384 108 92 72
1.71263 0.805445 6.6869 177 122 112
1.88115 0.943712 6.69999 194 158 94
2.62542 1.15646 7.70244 148 116 110
2.03664 1.17539 6.82061 98 62 54
1.35142 1.66157 6.48231 176 144 53
2.9947 2.42479 7.05487 162 165 164
2.97596 2.48987 7.13473 52 28 24
0.125029 2.49497 6.09731 224 218 183
0.32833 2.52201 6.08318 132 126 112
3.06759 2.66445 7.0101 64 24 9
2.18377 2.74428 6.74483 137 62 50
2.18629 2.74666 6.64778 118 48 42
1.10687 -2.90207 6.77185 98 108 120
0.730333 -2.78349 6.87396 28 29 31
1.73184 -2.58235 7.07087 13 6 3
1.65541 -2.5905 7.0157 188 192 200
1.93368 -2.4489 7.07421 16 10 8
1.86491 -2.46658 7.16219 196 177 166
2.0735 -2.09238 7.49595 58 51 44
2.33528 -1.47512 8.59702 159 148 127
2.34569 -1.26324 7.90563 132 120 94
0.936999 -1.03705 6.65443 102 87 78
2.29079 -0.897434 7.34906 154 146 128
0.749527 -0.829556 6.80816 108 109 106
1.71046 -0.783828 6.69511 90 48 42
1.91568 -0.783852 6.73289 88 72 66
0.548485 -0.638966 6.61286 178 196 189
1.28512 -0.570284 6.41921 74 50 46
2.07482 -0.362305 6.58332 60 56 52
0.850052 -0.280032 6.20213 142 158 148
2.51863 -0.251723 6.59959 162 206 199
1.59519 -0.1056 6.31741 118 82 74
1.73413 -0.0832369 6.35409 165 151 144
2.51693 -0.0977358 6.90888 74 66 40
1.26288 -0.0175834 6.00235 200 196 156
2.34298 0.620035 8.00155 163 158 136
2.14015 0.821596 6.91354 164 170 162
2.4983 0.922671 7.81586 170 135 128
1.01602 1.15838 6.55513 154 172 175
3.14419 1.59279 9.16335 120 96 65
1.13739 1.35451 6.50364 138 134 126
2.39969 1.45002 6.93386 105 92 81
2.53926 1.91958 7.02608 88 74 68
1.63025 1.98198 6.4476 68 38 6
1.89148 1.96897 6.46062 123 98 56
0.527951 2.41105 6.30869 158 163 164
3.04882 2.52084 7.27067 94 80 74
3.03295 2.58028 7.1502 80 46 38
0.268363 2.63441 6.2267 242 238 206
2.17907 2.72672 6.6464 148 66 58
1.88504 -2.82683 7.13135 109 118 124
1.83234 -2.73076 7.17491 46 42 39
1.94748 -2.21319 7.20005 79 65 58
2.22078 -1.81017 8.92669 184 174 144
1.39554 -1.32054 7.17228 191 182 152
2.3572 -1.4443 8.41086 163 153 132
1.46812 -1.21498 7.02816 121 98 72
1.7982 -1.22356 7.21993 118 102 74
1.36713 -1.13374 6.76132 218 170 168
2.36335 -1.26925 8.12058 118 100 78
2.53399 -1.05284 8.05277 126 110 84
0.475448 -0.647572 6.73547 182 204 200
1.35953 -0.590534 6.55414 66 36 16
2.40535 -0.642743 7.20112 112 128 89
0.747375 -0.391482 6.44921 77 73 67
1.01253 -0.178823 6.27222 96 96 88
1.59737 -0.0899059 6.24259 104 68 60
1.08617 0.717479 6.49931 64 53 44
1.86238 1.17061 6.72806 208 162 162
1.81933 1.30496 6.71269 96 58 53
2.49047 1.51791 6.9553 137 137 136
2.5372 2.06524 6.9506 222 156 165
1.55583 2.24861 6.47009 150 113 54
3.14207 2.53452 7.31031 230 218 188
2.42211 2.59809 6.77296 197 169 140
0.353236 2.80159 6.2167 166 162 158
1.21053 -2.64968 6.87766 22 12 5
1.38194 -2.62296 6.84049 162 150 146
2.04452 -2.4089 7.16584 92 101 112
0.722416 -2.39912 6.87871 80 89 98
1.89084 -2.31339 7.10709 204 184 170
1.48441 -2.05304 6.80467 222 197 184
1.48029 -1.218 6.94292 142 124 94
1.40381 -1.09819 6.58334 214 168 168
1.81917 -0.740075 6.69366 204 168 162
1.86401 0.0412445 6.28555 90 64 52
2.34834 0.623053 7.87049 156 152 130
0.143687 1.34334 6.45879 96 45 39
3.14785 1.5463 8.85671 124 98 65
1.77082 1.44564 6.55775 105 90 73
0.136277 2.50345 6.31548 79 80 78
0.275009 2.59989 6.18453 191 186 158
0.875227 -2.52449 7.05814 95 85 80
1.57575 -2.43572 7.05469 190 166 153
2.01384 -2.5357 7.50541 80 86 96
0.687496 -2.42818 6.98404 83 92 100
0.666786 -2.29351 6.92495 2 0 0
0.914165 -2.17062 6.685 131 102 88
1.36081 -2.15847 6.74666 108 73 54
0.646781 -2.16763 6.87399 65 71 78
1.9626 -1.91008 7.27222 192 156 130
2.23412 -1.6939 8.35251 152 144 123
1.93846 -1.41806 7.57521 180 183 172
2.35969 -1.5273 8.70264 144 137 122
2.25224 -1.29349 7.86859 194 209 206
2.57267 -0.976177 7.76118 108 96 78
1.91737 -0.57503 6.98092 225 194 190
2.45384 -0.267825 6.88707 174 222 208
1.79912 0.226133 6.34929 57 34 28
1.81542 0.766286 6.67957 118 76 66
0.996698 1.18948 6.53169 144 164 164
1.72406 1.65454 6.5795 172 140 76
2.55334 2.05914 6.95274 225 160 170
1.42795 2.06038 6.49268 184 157 71
3.2981 2.34802 7.43887 216 206 173
2.3183 2.45101 6.96011 89 32 28
1.91496 -1.97067 7.44426 196 150 122
1.13687 -1.10743 6.6935 184 139 132
1.27831 -1.10584 6.70025 216 187 190
2.41323 -1.26324 7.96159 122 100 70
1.41206 -0.997655 6.9965 72 46 38
0.780841 -0.916335 6.85185 81 78 68
2.57913 -1.05341 8.30871 116 93 67
-0.674777 -1.04679 7.928 76 68 42
0.755959 -0.598676 6.56709 81 61 54
-0.509678 -0.631024 7.63736 54 46 22
2.10908 -0.360312 6.72376 39 38 30
2.75495 0.038192 7.09262 184 175 163
0.883533 0.171038 6.24858 23 10 2
1.75306 0.846472 7.55541 138 93 89
-0.886349 1.37233 7.85502 110 102 70
3.17548 1.57333 8.82836 118 85 56
-0.259444 1.69592 6.64791 58 46 32
2.38005 1.93286 6.94449 172 172 163
1.82227 -1.56221 7.45705 16 10 10
0.880656 -1.35377 7.06543 22 13 6
-0.540043 -1.51438 7.95688 75 62 38
1.81144 -1.23749 6.94042 150 132 102
1.96791 -1.02466 7.0569 122 136 116
2.07303 -0.918763 7.13184 141 186 166
1.9981 -0.747954 6.62053 68 74 54
1.67174 -0.536483 6.15758 98 66 54
-0.367824 -0.645876 7.31659 53 42 26
0.716569 -0.508446 6.66714 86 59 48
1.51175 -0.46745 6.44388 189 160 153
1.76256 -0.254044 7.04332 176 160 148
1.42585 0.0504461 6.34344 172 154 138
1.96099 1.15044 6.85931 110 66 56
3.22929 1.61647 9.15612 125 84 56
-0.341952 1.72746 6.83346 59 46 33
-0.495492 1.73829 6.55228 108 98 86
1.74496 1.76624 6.5469 217 200 144
1.57977 -1.0585 5.77446 143 132 110
1.97694 -0.723348 6.06208 78 58 48
2.23683 -0.72596 6.94171 156 201 181
2.0956 -0.577661 6.58995 86 88 82
2.16251 -0.586157 6.8027 50 55 40
1.32025 -0.540888 6.39079 44 22 20
2.44245 -0.553899 6.87004 92 108 82
1.84736 -0.329267 6.41178 94 64 56
1.85039 -0.273256 6.58662 147 134 128
2.69435 0.0175917 6.58771 130 116 88
2.69928 2.08066 7.03694 61 35 34
2.13923 2.19608 6.75881 104 72 72
2.88071 2.42676 7.03867 72 28 30
2.3638 -0.477948 6.67971 84 107 92
1.81745 -0.258918 6.34781 102 85 75
2.53274 -0.233874 6.60965 158 200 181
2.25459 -0.210829 6.52058 104 104 102
0.00073651 2.53812 6.28744 201 190 162
1.72342 2.92696 6.38652 92 55 54
1.02207 -0.826326 6.55869 137 108 101
1.4203 -0.561438 6.3599 62 31 8
2.04832 -0.587537 6.68045 210 173 168
1.9205 -0.543732 6.52074 238 224 224
2.02217 -0.295996 6.44807 164 154 148
2.5609 -0.0798563 6.84806 150 137 106
0.893508 0.027115 6.12205 135 135 126
1.69515 0.0345217 6.15342 87 75 71
1.20373 -2.67999 6.85577 14 6 4
1.83764 -2.49724 7.14108 192 182 181
1.36433 -1.73079 6.75863 145 120 105
1.92738 -0.267694 6.32819 68 48 46
2.03198 1.04806 6.88653 196 144 142
1.38986 2.04966 6.446 160 135 69
1.93401 2.14702 6.60941 166 160 153
0.058916 2.56749 6.27792 202 193 164
0.374663 2.51394 6.22449 158 172 176
2.59341 2.79643 6.91436 178 144 60
1.61382 -1.0775 6.70956 206 154 149
1.70284 0.418883 6.48403 25 9 2
1.73088 2.08306 6.53192 154 142 128
0.635353 2.23008 6.23238 148 156 154
1.7889 2.55966 6.53435 92 66 62
1.78884 -1.56251 7.37727 28 12 6
1.47924 -1.35401 6.77636 90 54 34
0.163039 0.810584 7.01889 34 18 6
1.92993 -2.22017 7.126 188 161 146
1.21375 -1.96987 6.67873 175 147 132
1.78045 -0.920718 6.00982 162 128 127
2.42819 -1.14505 8.14036 178 184 170
1.7651 -0.08968 6.28749 176 164 156
1.39594 0.124872 6.26372 150 132 118
0.129905 0.827672 7.05944 40 24 8
1.30274 2.23557 6.51239 87 76 70
0.368463 -1.30606 7.10252 54 54 44
0.856846 -0.909831 6.76023 60 46 36
1.24757 1.85052 6.3475 190 170 100
1.90855 -2.42173 7.19661 105 100 100
1.98445 -2.38755 7.19557 34 34 39
1.79466 -2.18946 6.92812 93 70 56
0.0576872 2.57681 6.30903 206 199 168
1.49985 1.80199 6.43845 204 120 56
1.15654 0.0310257 6.26718 142 133 100
2.26614 -0.765807 5.18567 150 140 128
-3.69049 -1.21815 17.1364 24 14 3
2.5111 -0.0217323 6.66031 200 190 156
1.0415 2.1326 6.4636 70 56 44
2.01423 0.66391 6.74475 30 12 5
2.03601 0.741544 6.97907 66 46 34
2.41984 1.48626 6.9698 114 108 98
2.48837 1.50167 6.96703 184 195 196
0.106471 2.55049 6.2403 196 188 159
0.196645 2.54446 6.15847 194 187 159
2.33393 -0.0461211 6.46963 190 172 157
1.18624 0.0713166 6.21087 142 131 102
1.76224 2.02984 6.64045 148 107 46
-2.94498 -1.46855 14.4712 75 70 47
1.71144 1.64904 6.59021 164 133 67
1.59655 -0.338276 6.58181 142 108 102
1.00735 1.21032 6.45885 139 158 157
1.7905 -2.75737 7.09827 89 90 96
1.42806 -1.02619 6.71839 138 104 102
2.51795 -0.0261434 6.63878 220 212 176
1.37249 -1.01826 6.64358 214 168 166
2.14003 -0.564775 6.83199 84 98 84
1.91231 1.15539 6.76727 146 104 96
1.75639 1.48411 6.62588 108 95 76
2.43182 1.4741 6.91702 102 92 82
2.16552 2.74287 6.68482 122 55 49
1.89339 1.89171 6.645 150 120 80
1.24686 -2.30788 6.78077 164 148 142
1.34991 -1.0062 6.66315 204 156 156
1.78166 2.761 6.44855 174 157 151
0.611604 -2.91856 7.12415 44 44 42
1.88842 -2.64006 7.17682 102 104 102
1.69688 -2.18781 6.79677 67 44 36
0.42558 -0.569416 6.81473 154 170 166
2.81095 1.53678 7.44506 72 87 68
2.83846 1.57894 7.61276 68 76 58
1.49067 1.83678 6.45929 192 111 48
2.50223 1.98324 6.89274 114 82 84
0.142796 2.59335 6.25724 220 213 185
0.442375 2.54246 6.19937 128 126 124
2.65148 2.5452 6.89979 96 31 26
